ply
format ascii 1.0
element vertex 1249
property float x
property float y
property float z
property uchar red
property uchar green
property uchar blue
end_header
62.5075 -6.69395 14.8556  255 255 255
66.6046 -11.5787 23.3245  255 255 255
66.6046 -11.5787 23.3245  255 255 255
-45.3108 40.0003 -44.4108  255 255 255
-42.9025 40.2626 -45.7672  255 255 255
-48.0887 39.8379 -43.5714  255 255 255
-57.1191 38.4862 -38.1441  255 255 255
-5.11987 46.3759 -70.7192  255 255 255
-13.1053 43.3373 -62.6014  255 255 255
-14.1729 43.4733 -62.8683  255 255 255
-58.329 38.0079 -37.3601  255 255 255
-58.3543 38.1403 -37.5165  255 255 255
-24.4375 43.1484 -58.8985  255 255 255
-59.6536 37.6195 -36.5561  255 255 255
-48.857 38.9778 -43.4776  255 255 255
53.3407 1.35585 -0.94429  255 255 255
53.3407 1.35585 -0.94429  255 255 255
-60.7678 37.5562 -36.6585  255 255 255
-54.027 38.333 -40.7052  255 255 255
-56.2675 37.9593 -39.4927  255 255 255
-62.1483 37.0128 -35.9015  255 255 255
-34.9841 40.7006 -52.5258  255 255 255
-34.9841 40.7006 -52.5258  255 255 255
63.7788 -9.89799 17.9581  255 255 255
-52.4457 38.1409 -41.9822  255 255 255
-38.3455 40.1004 -50.6774  255 255 255
57.2238 -3.02819 5.60529  255 255 255
57.2721 -3.02376 5.55384  255 255 255
-49.2683 38.0649 -42.8269  255 255 255
-45.8935 38.6997 -45.6129  255 255 255
2.46113 -7.85758 32.4208  255 255 255
-49.6245 38.4128 -43.8611  255 255 255
4.52458 -8.25418 32.2853  255 255 255
55.0027 -1.12191 1.60724  255 255 255
-51.2448 37.9214 -42.792  255 255 255
-35.8405 40.0644 -52.5599  255 255 255
-50.086 38.1332 -43.7729  255 255 255
65.6309 -11.9306 20.2575  255 255 255
-62.8068 36.3554 -35.7399  255 255 255
-4.9359 44.4206 -72.0414  255 255 255
-4.86089 44.495 -72.2778  255 255 255
-5.24931 -6.11844 30.6816  255 255 255
-5.2093 -6.08848 30.5963  255 255 255
-6.15558 -5.68101 29.9788  255 255 255
61.5231 -7.48646 12.1393  255 255 255
61.5102 -7.50886 12.162  255 255 255
-42.3423 39.1468 -48.9983  255 255 255
0.72769 -7.87583 32.1076  255 255 255
-1.92973 -7.54634 32.1762  255 255 255
0.00519666 -7.95389 32.4392  255 255 255
-10.1373 -3.12122 25.6987  255 255 255
-23.5529 41.4394 -60.8866  255 255 255
-23.5529 41.4394 -60.8866  255 255 255
-1.61335 -7.61301 31.9283  255 255 255
-1.86421 -7.78019 32.3594  255 255 255
-2.36437 -7.77335 32.2139  255 255 255
-23.2714 41.2121 -61.1265  255 255 255
54.8663 -1.642 0.74935  255 255 255
-6.24053 -6.47993 30.4453  255 255 255
-6.23637 -6.47914 30.4435  255 255 255
-24.8328 40.8232 -60.4438  255 255 255
54.7016 -1.69409 0.439592  255 255 255
61.1686 -8.12498 11.5939  255 255 255
54.1164 -1.20855 -0.537818  255 255 255
-9.38088 -4.80114 27.5381  255 255 255
-50.985 36.9559 -44.1556  255 255 255
-35.7879 38.9568 -53.6572  255 255 255
-12.7832 -1.71426 22.1784  255 255 255
-36.4019 38.8343 -53.2571  255 255 255
-3.36365 -8.16845 32.2468  255 255 255
-55.389 36.2398 -41.7021  255 255 255
-0.981021 -8.94321 32.9566  255 255 255
58.0421 -5.33763 5.75384  255 255 255
-49.166 36.8102 -45.3078  255 255 255
-2.07786 -8.80121 32.7283  255 255 255
-51.8681 36.4256 -43.7681  255 255 255
-51.8535 36.6869 -44.2547  255 255 255
-1.69072 -9.10698 32.935  255 255 255
-21.9712 40.3974 -63.2098  255 255 255
-9.61061 -5.44047 27.8466  255 255 255
51.6683 0.595431 -5.51722  255 255 255
52.5153 -0.328673 -3.98967  255 255 255
61.949 -9.47031 12.1768  255 255 255
61.949 -9.47031 12.1768  255 255 255
6.07996 -10.2929 32.6075  255 255 255
-12.2699 -3.2396 23.9699  255 255 255
53.7855 -1.67288 -1.90973  255 255 255
52.0615 -0.0436091 -5.08287  255 255 255
57.3657 -5.32781 4.25522  255 255 255
57.3639 -5.32903 4.25685  255 255 255
63.9092 -9.60825 11.1216  255 255 255
-48.9612 36.2647 -45.9038  255 255 255
-4.56223 -8.63195 32.1464  255 255 255
54.9017 -2.93865 -0.151512  255 255 255
57.576 -5.59448 4.46892  255 255 255
57.5936 -5.60246 4.48617  255 255 255
-55.8595 35.3944 -41.9195  255 255 255
-56.3603 35.2664 -41.593  255 255 255
16.6937 36.1857 -69.9484  255 255 255
50.1023 1.64955 -8.68215  255 255 255
58.1224 -6.20624 5.25023  255 255 255
-10.4963 -5.73264 27.4383  255 255 255
-10.3246 -5.91928 27.8109  255 255 255
-12.9317 -3.57601 23.6477  255 255 255
-10.0166 -6.55745 28.3132  255 255 255
-1.35767 -10.4463 33.3457  255 255 255
54.0784 -2.83238 -2.29227  255 255 255
62.9091 -11.3931 12.819  255 255 255
-12.5315 -4.72823 25.0646  255 255 255
-29.311 38.0093 -59.7126  255 255 255
-23.9949 38.5643 -63.0187  255 255 255
61.692 -10.4173 10.6068  255 255 255
-3.47846 -10.237 32.995  255 255 255
-3.97392 -10.0643 32.7001  255 255 255
-29.8468 37.4903 -59.7018  255 255 255
-2.33112 -10.6593 33.2745  255 255 255
7.11274 -11.9078 32.5456  255 255 255
57.75 -7.00014 3.88285  255 255 255
57.0596 -6.03231 1.94643  255 255 255
57.0596 -6.03231 1.94643  255 255 255
-55.9105 34.0384 -42.7383  255 255 255
-53.0155 34.3083 -44.4565  255 255 255
60.3627 -9.54227 8.1243  255 255 255
60.3627 -9.54227 8.1243  255 255 255
51.5629 -1.08656 -7.2653  255 255 255
-5.82072 -9.78384 32.1609  255 255 255
-5.80619 -9.78824 32.1383  255 255 255
49.71 0.524197 -10.2626  255 255 255
51.0157 -0.664177 -8.15663  255 255 255
-6.97926 -9.41001 31.4873  255 255 255
5.3003 -12.3965 33.3765  255 255 255
49.6441 0.547583 -10.7046  255 255 255
57.7751 -8.7896 6.44313  255 255 255
59.6111 -9.19354 6.61691  255 255 255
57.594 -7.45406 3.07524  255 255 255
-47.7701 34.3939 -48.665  255 255 255
-35.6337 35.9352 -56.6433  255 255 255
60.2339 -10.2831 7.94946  255 255 255
-28.348 36.7888 -61.5804  255 255 255
-28.4024 36.8062 -61.5729  255 255 255
-0.889807 -11.8599 33.734  255 255 255
-42.3114 35.4719 -53.6079  255 255 255
58.1601 -8.3229 4.11113  255 255 255
59.5888 -9.88452 6.97201  255 255 255
59.3714 -9.64008 5.97198  255 255 255
61.0261 -11.0889 8.52285  255 255 255
-59.716 32.5763 -41.321  255 255 255
-13.0302 -6.42517 25.7877  255 255 255
-57.6463 32.8533 -42.8011  255 255 255
59.3242 -9.63111 5.59398  255 255 255
-55.016 32.8535 -44.0917  255 255 255
52.0762 -2.73983 -7.39999  255 255 255
52.0762 -2.73983 -7.39999  255 255 255
-52.0631 33.0066 -46.3083  255 255 255
53.3172 -3.97097 -5.21748  255 255 255
-4.27117 -11.64 33.0479  255 255 255
10.5654 -13.4052 31.304  255 255 255
-0.568643 -12.7637 33.9528  255 255 255
52.3858 -3.34184 -7.0979  255 255 255
-51.2961 33.1413 -47.7803  255 255 255
-51.3021 32.9604 -47.4401  255 255 255
50.5787 -1.80793 -10.1625  255 255 255
-4.52322 -11.8315 33.0557  255 255 255
-56.1904 32.3014 -44.1697  255 255 255
-30.1857 35.2456 -61.504  255 255 255
8.2988 28.1833 -60.9125  255 255 255
8.31966 28.2149 -60.982  255 255 255
-4.78897 -11.9449 33.0865  255 255 255
56.9952 -8.06663 0.793122  255 255 255
-46.8276 32.8818 -49.9427  255 255 255
-46.8276 32.8818 -49.9427  255 255 255
-27.5082 35.3969 -63.5067  255 255 255
6.0765 28.2829 -61.0396  255 255 255
1.10625 -13.5965 33.9564  255 255 255
1.10625 -13.5965 33.9564  255 255 255
64.3701 -12.1323 5.96853  255 255 255
-11.2278 -9.43265 28.8262  255 255 255
-14.1356 -7.35852 25.1398  255 255 255
-51.3133 31.9805 -48.4129  255 255 255
-51.3133 31.9805 -48.4129  255 255 255
51.5123 -3.62765 -9.49408  255 255 255
-50.687 32.0058 -48.8527  255 255 255
-8.42529 -11.3146 31.4071  255 255 255
51.4657 -3.76811 -9.91724  255 255 255
58.3146 -10.3433 2.31244  255 255 255
53.8986 -6.06145 -5.788  255 255 255
-9.53981 -10.952 30.5533  255 255 255
59.9611 -12.1482 5.14855  255 255 255
-9.29435 -11.2983 30.7722  255 255 255
-9.29266 -11.299 30.7752  255 255 255
-6.84367 -12.4017 32.2662  255 255 255
-49.4189 31.5544 -50.2392  255 255 255
-16.0451 -5.72953 20.6853  255 255 255
-11.7906 -10.0476 28.6628  255 255 255
-11.7913 -10.0479 28.6643  255 255 255
-1.92044 -14.0669 33.8441  255 255 255
59.4776 -11.8147 3.7668  255 255 255
-7.8282 -12.205 31.7822  255 255 255
-12.9766 -8.71314 25.9295  255 255 255
-12.9766 -8.71314 25.9295  255 255 255
-13.5766 -9.04282 26.6849  255 255 255
-1.79032 -14.2914 33.9262  255 255 255
59.7397 -12.3776 4.31575  255 255 255
59.7397 -12.3776 4.31575  255 255 255
-9.3168 -11.8485 30.9926  255 255 255
7.96248 -15.7142 32.7982  255 255 255
-5.84827 -13.2645 32.7732  255 255 255
-5.84827 -13.2645 32.7732  255 255 255
-5.32883 -13.5075 33.0013  255 255 255
-2.66038 -14.4347 33.7501  255 255 255
-4.29979 -13.9943 33.3289  255 255 255
53.4834 -6.79571 -7.09041  255 255 255
-12.7719 -10.1754 27.7584  255 255 255
-9.51918 -12.1607 30.8568  255 255 255
-9.52421 -12.155 30.8692  255 255 255
-9.51891 -12.1601 30.8445  255 255 255
52.6893 -6.33961 -8.71741  255 255 255
-0.727982 -15.2764 34.066  255 255 255
59.8369 -13.2178 3.99281  255 255 255
59.6997 -13.119 3.59969  255 255 255
61.7948 -15.0672 6.93696  255 255 255
62.7966 -14.8002 5.95708  255 255 255
7.91603 -16.477 32.8195  255 255 255
7.91603 -16.477 32.8195  255 255 255
8.41661 -16.555 32.5641  255 255 255
53.3945 -7.37757 -7.86729  255 255 255
60.6517 -14.536 5.47623  255 255 255
66.2123 -20.1424 16.1438  255 255 255
-9.41272 -12.7301 30.8272  255 255 255
53.5917 -7.81051 -7.56118  255 255 255
-25.6801 29.6153 -61.4533  255 255 255
-16.1737 0.453566 2.76233  255 255 255
8.66665 -16.7858 32.425  255 255 255
61.0719 -14.9622 5.78056  255 255 255
-3.37528 -15.1535 33.6409  255 255 255
-7.35332 -13.8754 32.2307  255 255 255
62.724 -16.1628 7.75145  255 255 255
-55.4214 29.1155 -47.8548  255 255 255
57.0569 -11.3784 -1.38963  255 255 255
-17.3603 -4.09768 13.0395  255 255 255
-9.88051 -13.009 30.7406  255 255 255
-7.74711 -14.0187 32.0684  255 255 255
-37.3514 30.5719 -60.2602  255 255 255
-12.9842 -11.4064 28.005  255 255 255
-8.17128 -13.9984 31.8744  255 255 255
8.43979 -17.3149 32.431  255 255 255
-2.21219 -15.9792 33.8795  255 255 255
-19.3269 -0.457619 4.28327  255 255 255
-18.5951 -4.51185 13.5799  255 255 255
-8.44072 -14.018 31.7165  255 255 255
63.7913 -18.39 10.2497  255 255 255
-8.63301 -13.9892 31.5775  255 255 255
-9.6843 -13.5412 30.8601  255 255 255
61.6042 -16.1818 5.58299  255 255 255
61.6042 -16.1818 5.58299  255 255 255
64.0291 -18.4227 9.74406  255 255 255
-5.65576 -15.4189 32.9956  255 255 255
3.5001 -17.3918 33.6841  255 255 255
58.9422 -13.9758 0.574501  255 255 255
-9.18269 -14.1486 31.314  255 255 255
60.356 -15.3024 2.97305  255 255 255
2.52849 -17.652 33.9208  255 255 255
2.52849 -17.652 33.9208  255 255 255
-5.07118 -16.0097 33.1821  255 255 255
55.7057 -11.1895 -5.78963  255 255 255
-8.95109 -14.5773 31.4433  255 255 255
-2.7079 -16.7418 33.6894  255 255 255
-18.395 -6.27213 15.4787  255 255 255
-2.23449 -16.8753 33.7938  255 255 255
-7.30946 -15.4032 32.3757  255 255 255
6.68261 -18.3631 32.9897  255 255 255
56.6459 -12.6487 -3.50146  255 255 255
-1.05958 -17.3119 33.9295  255 255 255
-38.4099 28.139 -59.5849  255 255 255
-4.21891 -16.7517 33.4446  255 255 255
61.2626 -17.1376 4.30198  255 255 255
-2.81195 -17.1404 33.7059  255 255 255
57.6578 -13.8339 -2.19205  255 255 255
-19.5053 -6.69838 15.9016  255 255 255
-7.16973 -15.8671 32.4144  255 255 255
58.9182 -15.1409 0.0704101  255 255 255
61.6227 -17.503 4.24801  255 255 255
59.7631 -16.1382 1.51566  255 255 255
64.367 -20.1428 9.09975  255 255 255
4.72002 -18.7062 33.3549  255 255 255
-0.581708 -17.9721 33.8589  255 255 255
60.6882 -17.0279 2.77009  255 255 255
56.9743 -13.7487 -3.47409  255 255 255
56.3719 -13.233 -4.67167  255 255 255
-22.6977 -3.44229 8.05025  255 255 255
-18.7779 -7.69901 16.7072  255 255 255
60.4734 -17.0659 2.53984  255 255 255
-8.7037 -15.7543 31.6413  255 255 255
-1.56302 -18.0189 33.7808  255 255 255
-0.464704 -18.3304 33.8039  255 255 255
4.14537 -19.1412 33.4815  255 255 255
8.84881 -19.4654 31.985  255 255 255
-19.2393 -8.29579 17.4991  255 255 255
61.822 -18.6473 4.43988  255 255 255
-21.5899 -4.73434 9.43902  255 255 255
-54.6062 25.4441 -50.5771  255 255 255
-19.2317 -8.52276 17.403  255 255 255
56.5757 -14.1559 -4.82268  255 255 255
-5.39709 -17.2937 32.3359  255 255 255
-47.3091 25.9792 -55.8727  255 255 255
24.9334 -19.4801 23.098  255 255 255
2.47134 -19.4296 33.4349  255 255 255
-27.0216 19.4065 -50.3263  255 255 255
-21.5656 -5.93252 10.678  255 255 255
58.5259 -16.4427 -2.12143  255 255 255
-17.2013 -11.366 22.1302  255 255 255
57.5921 -15.6036 -3.72756  255 255 255
57.6683 -15.593 -3.80816  255 255 255
-13.4584 -14.4397 28.0207  255 255 255
-13.4754 -14.4283 28.0223  255 255 255
-0.85693 -19.1841 33.6103  255 255 255
58.6397 -17.0281 -1.95539  255 255 255
-15.0189 -13.8645 26.2657  255 255 255
-12.4597 -15.3097 28.622  255 255 255
-5.99408 -18.1812 32.6942  255 255 255
22.5369 -20.8953 25.0854  255 255 255
-2.03187 -19.3772 33.467  255 255 255
59.5131 -18.2181 -1.01852  255 255 255
59.5361 -18.2119 -1.07634  255 255 255
57.0225 -16.1371 -5.43754  255 255 255
56.5596 -15.9712 -6.46566  255 255 255
57.0374 -16.4471 -5.3357  255 255 255
58.5974 -17.771 -2.94218  255 255 255
58.5263 -17.7635 -2.8625  255 255 255
64.3828 -22.9705 7.45274  255 255 255
-15.3669 -14.0793 25.1164  255 255 255
9.48328 -21.3342 31.0419  255 255 255
-24.9948 -7.50528 12.8896  255 255 255
-13.1076 -15.9359 28.4352  255 255 255
-13.0862 -15.9398 28.4074  255 255 255
7.16585 -21.333 31.8619  255 255 255
-6.2331 -18.9072 32.4228  255 255 255
-4.99857 -19.3981 32.7549  255 255 255
-19.6371 -12.4116 22.1406  255 255 255
-12.8005 -16.3003 28.662  255 255 255
56.6804 -16.446 -7.0959  255 255 255
61.2082 -20.5559 1.22865  255 255 255
-3.26392 -19.9282 33.0599  255 255 255
0.106822 -20.6376 33.1768  255 255 255
-11.5246 -17.2029 29.665  255 255 255
6.20254 -21.7035 32.1334  255 255 255
-11.6846 -17.1906 29.5623  255 255 255
57.0207 -17.6747 -6.41377  255 255 255
-9.20182 -18.5311 31.0605  255 255 255
-23.9641 -9.38977 14.371  255 255 255
-13.2982 -16.8415 28.1386  255 255 255
-13.2982 -16.8415 28.1386  255 255 255
-7.28994 -19.5307 31.8317  255 255 255
-20.7348 -12.91 21.3279  255 255 255
62.7842 -23.3827 3.86986  255 255 255
2.04633 -21.8188 32.3988  255 255 255
-6.11625 -20.1568 32.1923  255 255 255
-0.231308 -21.5997 32.834  255 255 255
0.208439 -21.4259 32.154  255 255 255
57.7052 -19.1627 -5.93842  255 255 255
-10.4394 -18.7862 30.2047  255 255 255
-0.125721 -21.9093 32.6936  255 255 255
-14.6563 -17.338 27.5638  255 255 255
-8.08952 -20.1468 31.2757  255 255 255
-10.6607 -19.2138 29.9272  255 255 255
-10.2055 -19.3968 30.1885  255 255 255
-3.08274 -22.0021 32.4518  255 255 255
-4.7102 -21.602 32.1994  255 255 255
-4.54092 -21.6811 32.2548  255 255 255
56.2865 -18.9038 -10.2339  255 255 255
-14.8795 -18.2736 28.618  255 255 255
56.0078 -18.9467 -10.3418  255 255 255
63.9678 -26.7033 6.11331  255 255 255
64.6368 -26.398 4.50021  255 255 255
56.8752 -20.1965 -8.21338  255 255 255
-25.0838 -12.8688 18.3214  255 255 255
59.58 -22.1857 -5.09102  255 255 255
-13.5916 -19.8087 30.0911  255 255 255
-18.9061 -16.8784 24.5369  255 255 255
63.8272 -26.5498 2.39053  255 255 255
-18.0146 -17.6938 26.0266  255 255 255
-18.1801 -17.9926 26.1154  255 255 255
-18.065 -17.9355 25.8827  255 255 255
-16.1015 -19.4803 29.1611  255 255 255
-7.54344 -22.6561 32.9522  255 255 255
75.2806 -28.9844 0.137679  255 255 255
-15.9264 -19.7321 29.252  255 255 255
-16.1004 -19.7099 29.1025  255 255 255
-18.8565 -17.5679 24.7657  255 255 255
-25.9501 -12.2145 13.1461  255 255 255
-10.1523 -22.6121 32.919  255 255 255
13.0463 -27.6903 33.0232  255 255 255
-14.719 -20.6883 29.9457  255 255 255
10.2404 -27.5499 33.1812  255 255 255
-11.4683 -22.5113 32.0406  255 255 255
-11.4701 -22.5083 32.0503  255 255 255
-11.478 -22.7217 32.0022  255 255 255
11.2203 -28.697 34.5485  255 255 255
15.8191 -28.924 31.893  255 255 255
61.7738 -27.1983 -2.53755  255 255 255
62.8017 -28.3561 -0.388434  255 255 255
-10.6695 -23.4024 32.4318  255 255 255
-10.6464 -23.4021 32.3871  255 255 255
-10.6731 -23.406 32.4318  255 255 255
-10.2853 -23.459 32.4862  255 255 255
-23.1207 -17.9692 24.22  255 255 255
-35.0794 4.01465 -34.3517  255 255 255
-22.4757 -18.2767 24.1818  255 255 255
-11.3534 -23.2946 31.8749  255 255 255
-24.7247 -17.5982 22.9196  255 255 255
-29.6229 1.31125 -30.8574  255 255 255
-9.00824 -24.3186 32.6579  255 255 255
0.89314 -26.8195 33.6144  255 255 255
-7.19107 -24.8928 33.0064  255 255 255
-36.0425 2.88279 -32.6788  255 255 255
-15.979 -21.559 28.4891  255 255 255
-15.979 -21.559 28.4891  255 255 255
-6.38952 -25.3591 33.1228  255 255 255
-6.39204 -25.3668 33.1415  255 255 255
8.39651 -29.2545 34.8648  255 255 255
-14.1332 -22.7259 29.7424  255 255 255
-12.3561 -23.5652 30.8935  255 255 255
-5.73935 -25.7593 33.1716  255 255 255
-2.95479 -26.5794 33.6732  255 255 255
-25.0942 -18.17 21.6692  255 255 255
-25.0942 -18.17 21.6692  255 255 255
-21.1654 -20.875 27.2559  255 255 255
-8.81073 -25.2471 32.3286  255 255 255
-6.81039 -25.8224 32.713  255 255 255
-14.02 -23.5503 29.8888  255 255 255
66.22 -33.1444 3.26385  255 255 255
-35.931 0.0991158 -29.3494  255 255 255
-7.60947 -25.9596 32.4448  255 255 255
-25.5882 -3.32007 -26.004  255 255 255
-23.9282 -4.85727 -24.3258  255 255 255
-22.6114 -21.1895 26.0071  255 255 255
67.8402 -35.4238 4.97954  255 255 255
-21.432 -22.6081 29.0789  255 255 255
-22.5279 -21.4477 26.0538  255 255 255
-7.15268 -27.2918 33.624  255 255 255
-15.7674 -24.6938 31.1841  255 255 255
1.74799 -30.6482 36.0727  255 255 255
-4.61597 -29.0211 35.3538  255 255 255
-23.9234 -20.7327 22.6427  255 255 255
-43.3197 -1.29037 -27.4881  255 255 255
0.766812 -30.6117 35.9887  255 255 255
2.44921 -30.9641 35.6689  255 255 255
16.1311 -32.0263 28.5138  255 255 255
62.9702 -36.306 6.4609  255 255 255
-37.9002 -4.32204 -24.427  255 255 255
-18.9939 -25.0042 29.174  255 255 255
-22.2016 -23.1744 24.8755  255 255 255
2.11519 -32.0827 34.6166  255 255 255
-39.7118 -5.81786 -22.6864  255 255 255
-44.7963 -4.75787 -23.5074  255 255 255
-16.4377 -26.8964 30.4388  255 255 255
-20.7811 -24.9706 27.0244  255 255 255
-9.1235 -29.7423 34.1569  255 255 255
-21.0762 -25.1162 27.2478  255 255 255
-8.44159 -30.108 34.2458  255 255 255
-8.95761 -30.0555 34.2042  255 255 255
-21.0304 -25.4791 26.7248  255 255 255
-17.1758 -27.05 29.1053  255 255 255
0.723305 -32.7998 34.1297  255 255 255
-24.3153 -22.7863 19.7073  255 255 255
0.968638 -32.971 33.8878  255 255 255
-32.7523 -10.7155 -17.7488  255 255 255
-13.6375 -29.6084 32.7691  255 255 255
-3.68179 -32.8914 35.6183  255 255 255
-35.0195 -11.0017 -17.1435  255 255 255
11.673 -34.9091 28.6322  255 255 255
-20.2386 -26.6487 25.9612  255 255 255
-20.2386 -26.6487 25.9612  255 255 255
-9.48121 -31.1569 32.725  255 255 255
6.77772 -34.9861 31.6002  255 255 255
-19.1854 -27.379 26.8269  255 255 255
-8.43024 -31.8851 32.3545  255 255 255
-43.6755 -10.6151 -17.3413  255 255 255
6.87263 -35.7621 31.6737  255 255 255
-13.7053 -30.7986 31.8156  255 255 255
-9.22632 -31.9752 31.8879  255 255 255
-44.563 -10.9753 -17.1805  255 255 255
12.7554 -36.3212 27.2644  255 255 255
-44.2833 -11.2401 -16.6438  255 255 255
-23.496 -25.606 19.9247  255 255 255
-4.68467 -33.6219 32.7779  255 255 255
41.9213 -38.9831 8.3728  255 255 255
-12.1732 -31.3563 30.9091  255 255 255
-13.7182 -30.8743 30.1299  255 255 255
-49.4368 -10.8575 -16.9307  255 255 255
16.1698 -37.1799 23.5725  255 255 255
-36.9988 -14.9379 -12.8987  255 255 255
-42.3446 -13.2203 -14.9362  255 255 255
10.8254 -37.1242 27.812  255 255 255
-8.1013 -33.3896 30.8907  255 255 255
6.81525 -37.0963 30.3395  255 255 255
46.8711 -43.6086 15.0344  255 255 255
-4.30101 -34.8259 32.08  255 255 255
-9.90832 -33.2684 30.493  255 255 255
-20.7932 -28.9245 23.6094  255 255 255
-20.7467 -29.1504 23.4853  255 255 255
-20.523 -29.314 23.7754  255 255 255
-21.1697 -29.4807 23.3023  255 255 255
-21.1195 -29.4503 22.6898  255 255 255
-48.8323 -14.7484 -12.6298  255 255 255
-18.2238 -31.0014 25.321  255 255 255
-22.3383 -29.5282 23.0078  255 255 255
-6.1216 -35.7069 30.304  255 255 255
-23.4569 -28.4299 17.9676  255 255 255
6.95889 -39.0883 28.0494  255 255 255
-19.3486 -31.2155 23.7076  255 255 255
-19.3704 -31.3709 23.0837  255 255 255
-0.142957 -37.9634 29.2992  255 255 255
-16.6703 -33.0068 25.647  255 255 255
-14.5381 -33.9576 26.4898  255 255 255
-4.24881 -37.4999 29.9978  255 255 255
-4.0899 -37.4764 29.7438  255 255 255
-10.1715 -35.7024 28.367  255 255 255
6.39763 -39.9554 27.098  255 255 255
6.66122 -40.0908 27.1003  255 255 255
5.35759 -39.8237 27.2224  255 255 255
-9.9605 -35.9727 27.9796  255 255 255
-4.27168 -38.017 29.0258  255 255 255
-4.42282 -38.33 30.2471  255 255 255
-20.8643 -32.6458 20.1173  255 255 255
-21.2029 -32.6352 20.2926  255 255 255
-15.5961 -35.237 24.209  255 255 255
-9.92099 -37.5474 26.6391  255 255 255
16.0229 -45.153 23.2631  255 255 255
-39.329 -26.2937 -0.418717  255 255 255
-4.35032 -41.6473 27.8851  255 255 255
-13.6574 -39.1381 25.3936  255 255 255
-14.5869 -39.47 24.3574  255 255 255
-3.61524 -43.1266 26.54  255 255 255
-4.81329 -44.3952 29.4112  255 255 255
-4.65384 -45.7612 28.926  255 255 255
-24.8836 -38.4345 18.9752  255 255 255
-24.8795 -38.434 18.9745  255 255 255
0.701206 -47.1902 26.8853  255 255 255
-42.6762 -32.8042 6.27232  255 255 255
-24.4394 -39.4404 18.8444  255 255 255
-39.0999 -34.2779 7.93626  255 255 255
-41.9938 -33.6605 6.97168  255 255 255
-3.2848 -48.3569 26.8026  255 255 255
-15.6925 -44.6473 24.3399  255 255 255
-14.5565 -45.7974 24.2077  255 255 255
-6.9012 -49.1926 26.7277  255 255 255
8.47934 -54.3558 28.3916  255 255 255
2.63812 -52.6344 28.3599  255 255 255
-21.095 -45.8817 23.4895  255 255 255
-4.53427 -56.2352 31.2115  255 255 255
-38.5572 -44.8001 19.3934  255 255 255
-9.24879 -55.1016 29.932  255 255 255
-0.576727 -59.0037 33.0657  255 255 255
-0.188297 -59.3074 34.2269  255 255 255
-44.2017 83.643 -18.3356  255 255 255
6.47044 92.7646 -36.1767  255 255 255
-4.69036 89.0239 -31.3523  255 255 255
17.2719 96.3684 -41.8649  255 255 255
21.7371 97.5196 -43.4947  255 255 255
6.39213 92.4882 -36.638  255 255 255
14.3315 94.8321 -40.5559  255 255 255
39.8499 102.219 -51.3676  255 255 255
47.8265 104.603 -54.6024  255 255 255
-5.01701 88.2496 -31.9988  255 255 255
40.5587 102.314 -51.9946  255 255 255
44.2407 103.789 -54.0172  255 255 255
27.2645 97.9482 -46.7738  255 255 255
38.8029 101.436 -52.8205  255 255 255
51.6828 105.029 -57.9924  255 255 255
51.5174 104.836 -57.6923  255 255 255
32.1014 99.1235 -50.0032  255 255 255
12.488 92.7342 -41.2149  255 255 255
14.4177 93.4969 -42.3021  255 255 255
32.2911 98.7194 -50.2001  255 255 255
14.2929 92.998 -42.3862  255 255 255
11.7085 91.7886 -41.2832  255 255 255
10.5519 90.9079 -41.2448  255 255 255
53.9558 104.376 -60.6275  255 255 255
53.9423 104.362 -60.612  255 255 255
12.8428 91.176 -42.0911  255 255 255
11.5339 90.7409 -42.3309  255 255 255
51.6981 102.537 -60.6643  255 255 255
15.6985 91.2625 -44.7287  255 255 255
56.6714 103.744 -63.109  255 255 255
-22.7206 77.0301 -23.8058  255 255 255
-17.7157 81.0293 -29.2599  255 255 255
11.4602 89.9202 -42.9261  255 255 255
49.5138 59.7377 -8.04458  255 255 255
49.3066 60.0213 -8.57296  255 255 255
50.418 57.9657 -6.10259  255 255 255
8.27252 88.7941 -41.758  255 255 255
19.14 92.042 -46.872  255 255 255
7.22559 88.3785 -41.4159  255 255 255
49.5901 59.007 -8.03582  255 255 255
50.0159 58.0817 -6.94758  255 255 255
49.0274 60.2096 -9.80969  255 255 255
18.2724 91.1447 -46.4675  255 255 255
-3.30569 84.7955 -36.7958  255 255 255
52.4831 54.6763 -3.30965  255 255 255
3.20848 86.3996 -39.6511  255 255 255
50.4598 57.4911 -6.80937  255 255 255
21.3752 92.1357 -48.5052  255 255 255
49.5091 58.5752 -8.51795  255 255 255
-17.4359 79.9331 -29.9764  255 255 255
-23.6825 78.1048 -27.2312  255 255 255
5.12762 86.9181 -40.9597  255 255 255
19.2552 91.2352 -47.7577  255 255 255
0.918406 85.224 -38.8029  255 255 255
1.47511 85.2907 -38.9796  255 255 255
52.2625 55.016 -4.74624  255 255 255
52.4552 30.4196 26.5975  255 255 255
-40.8445 72.5123 -19.1061  255 255 255
-39.3555 73.0031 -19.9792  255 255 255
-33.0295 74.9843 -23.1101  255 255 255
-10.9715 81.5167 -33.7796  255 255 255
-43.1596 71.6653 -18.1555  255 255 255
13.0469 88.6607 -45.4548  255 255 255
-8.30396 82.144 -35.2969  255 255 255
4.23649 85.8056 -41.1725  255 255 255
-35.045 73.8533 -22.116  255 255 255
13.7342 88.7515 -45.9785  255 255 255
-28.9392 75.7054 -25.188  255 255 255
-23.1973 77.5355 -28.2296  255 255 255
49.3398 59.3046 -11.5956  255 255 255
51.6905 55.2574 -6.52817  255 255 255
1.61014 84.778 -40.3256  255 255 255
-24.1248 77.1242 -27.9273  255 255 255
22.8323 91.171 -50.6742  255 255 255
50.176 98.791 -62.8212  255 255 255
50.2355 56.2842 -8.49524  255 255 255
50.2355 56.2842 -8.49524  255 255 255
48.8872 36.7301 16.806  255 255 255
51.4842 31.6048 23.4151  255 255 255
-7.74482 81.5975 -36.2341  255 255 255
16.936 89.046 -48.0817  255 255 255
15.9737 88.6689 -47.7632  255 255 255
2.48391 84.2555 -41.259  255 255 255
16.4965 88.5499 -47.9752  255 255 255
-40.5068 71.5931 -20.5874  255 255 255
52.8398 33.4703 20.0337  255 255 255
10.5121 86.356 -45.3057  255 255 255
49.3804 57.1568 -10.9866  255 255 255
55.7161 27.7568 27.1058  255 255 255
-63.5571 64.5668 -9.21217  255 255 255
3.63604 84.4767 -42.3834  255 255 255
3.4837 84.224 -41.9682  255 255 255
3.63604 84.4767 -42.3834  255 255 255
16.5028 88.2517 -48.4269  255 255 255
-63.8189 64.4702 -9.37565  255 255 255
-42.9726 70.4916 -19.6611  255 255 255
54.1059 29.6447 23.8959  255 255 255
57.2822 99.4294 -67.6082  255 255 255
-53.67 67.0331 -14.4623  255 255 255
56.2114 28.9347 24.5038  255 255 255
-41.1027 70.4593 -20.8386  255 255 255
23.3505 88.7301 -51.8773  255 255 255
1.92302 82.9628 -42.3673  255 255 255
57.7159 24.0211 30.0509  255 255 255
53.1659 97.2794 -66.7753  255 255 255
47.6933 95.6141 -64.55  255 255 255
27.6735 89.797 -55.353  255 255 255
62.1676 21.5165 32.4231  255 255 255
0.24109 81.4993 -42.3162  255 255 255
49.3216 54.8717 -12.8907  255 255 255
49.2688 54.9642 -12.8489  255 255 255
43.4292 93.7897 -63.9749  255 255 255
-6.57212 79.1383 -39.5575  255 255 255
85.0412 104.971 -82.9612  255 255 255
-13.0138 77.032 -36.4062  255 255 255
-12.0595 77.1313 -36.7996  255 255 255
-12.0595 77.1313 -36.7996  255 255 255
-57.4789 64.2297 -13.9041  255 255 255
49.341 54.6788 -13.5457  255 255 255
-10.4523 77.239 -38.2714  255 255 255
-10.4599 77.2471 -38.2789  255 255 255
8.92244 82.7866 -48.0529  255 255 255
-8.80973 77.6535 -39.2535  255 255 255
63.6799 98.1239 -74.1281  255 255 255
61.5121 97.0912 -72.6715  255 255 255
15.2993 84.1731 -50.9675  255 255 255
17.3583 84.7909 -52.0322  255 255 255
-12.0105 76.3711 -37.7081  255 255 255
-11.9933 76.4418 -37.8708  255 255 255
-11.9674 76.4798 -37.879  255 255 255
-52.7412 64.8692 -17.0618  255 255 255
-46.9856 66.0362 -19.2516  255 255 255
-46.8846 66.745 -20.2385  255 255 255
-8.21735 77.1647 -39.7044  255 255 255
15.7588 83.8087 -51.7417  255 255 255
41.8886 91.0134 -64.1616  255 255 255
54.2359 23.2877 26.7015  255 255 255
43.8921 91.5112 -65.2945  255 255 255
-45.1669 66.7233 -21.1713  255 255 255
40.8047 90.8127 -64.1006  255 255 255
6.12461 80.4765 -46.6394  255 255 255
52.2113 29.294 18.3842  255 255 255
14.7423 83.2256 -51.4745  255 255 255
57.1405 95.2464 -72.088  255 255 255
54.0036 47.0537 -6.49833  255 255 255
-50.1082 64.9286 -18.4928  255 255 255
-61.5219 61.8965 -12.926  255 255 255
7.42009 81.0115 -48.1333  255 255 255
-56.3969 63.2133 -15.8998  255 255 255
-46.6557 65.5147 -20.5012  255 255 255
-61.6031 61.4491 -13.0911  255 255 255
43.5312 90.4198 -66.0752  255 255 255
3.12002 78.922 -45.9374  255 255 255
42.7855 90.0173 -66.0276  255 255 255
49.7172 91.7051 -69.4697  255 255 255
49.7073 31.5286 12.7672  255 255 255
71.9738 97.3792 -80.8312  255 255 255
71.9738 97.3792 -80.8312  255 255 255
-11.2096 74.3062 -40.0407  255 255 255
-14.0359 73.4479 -38.8311  255 255 255
-16.0614 72.6376 -37.5008  255 255 255
32.319 85.937 -62.0099  255 255 255
-54.6983 62.6097 -18.3013  255 255 255
-1.95746 76.4596 -45.3188  255 255 255
32.7047 85.6583 -62.5597  255 255 255
9.77099 79.5451 -51.3793  255 255 255
41.8887 88.2177 -67.2344  255 255 255
-7.0199 74.8463 -42.9429  255 255 255
18.2529 81.2987 -55.3721  255 255 255
57.4635 40.3481 -2.57124  255 255 255
16.1816 80.87 -55.0048  255 255 255
24.5957 83.0141 -59.1675  255 255 255
-44.3667 64.5522 -23.8267  255 255 255
40.3568 86.9776 -67.0474  255 255 255
-46.4105 63.8709 -22.9042  255 255 255
57.4499 39.9143 -3.04362  255 255 255
-45.7774 63.8918 -23.4337  255 255 255
-17.6851 71.1774 -38.0074  255 255 255
52.2218 26.4987 16.4132  255 255 255
52.2823 26.5252 16.3362  255 255 255
57.3928 20.5075 24.5494  255 255 255
-6.97954 73.9795 -43.5311  255 255 255
28.1673 83.4546 -61.8081  255 255 255
57.7366 90.483 -75.9098  255 255 255
-20.816 69.9479 -36.8167  255 255 255
30.5058 83.3156 -63.2792  255 255 255
30.4987 83.3129 -63.2709  255 255 255
55.6823 40.2612 -5.10802  255 255 255
-21.6072 69.4759 -36.5716  255 255 255
-21.625 69.4473 -36.488  255 255 255
57.9841 90.2512 -76.9209  255 255 255
29.9289 82.9147 -63.3888  255 255 255
29.9471 82.9308 -63.4103  255 255 255
-58.0084 60.0885 -18.0825  255 255 255
15.5078 78.8517 -55.8685  255 255 255
-7.46912 72.8059 -44.4543  255 255 255
-7.45199 72.8137 -44.5121  255 255 255
44.7798 86.0604 -70.3962  255 255 255
4.17528 75.4725 -50.0702  255 255 255
-10.2719 71.8061 -43.1612  255 255 255
10.2108 76.9081 -54  255 255 255
-33.3605 65.7144 -31.472  255 255 255
-45.5062 59.5169 -20.7913  255 255 255
32.0126 82.4067 -65.6319  255 255 255
-16.756 69.6292 -40.3968  255 255 255
-37.831 64.1575 -29.4122  255 255 255
33.4905 82.6702 -67.0282  255 255 255
51.6593 24.9117 14.4504  255 255 255
52.9494 43.1114 -12.6112  255 255 255
-32.4397 64.9765 -31.8795  255 255 255
52.9963 23.6894 15.8357  255 255 255
-39.8908 63.3919 -28.7212  255 255 255
56.6566 37.7477 -5.83543  255 255 255
-6.14601 71.5693 -46.382  255 255 255
-39.1844 63.4451 -29.3698  255 255 255
15.4178 77.0055 -57.6877  255 255 255
-40.0468 62.9932 -28.772  255 255 255
-41.9091 62.3398 -28.0391  255 255 255
-62.6385 56.7307 -16.4848  255 255 255
-41.5536 62.2483 -28.1108  255 255 255
19.0218 77.024 -59.4832  255 255 255
-45.3685 61.2599 -26.3617  255 255 255
-44.2775 60.7297 -25.7889  255 255 255
17.0108 76.4408 -58.7361  255 255 255
17.6115 76.607 -58.9657  255 255 255
58.5547 86.912 -79.8826  255 255 255
-46.4026 60.7541 -25.7296  255 255 255
-46.4026 60.7541 -25.7296  255 255 255
-39.2932 62.5104 -29.556  255 255 255
-39.3081 62.4732 -29.4935  255 255 255
17.4141 76.2893 -59.2902  255 255 255
-38.7381 62.5846 -30.3443  255 255 255
-41.9097 61.5383 -28.3776  255 255 255
-12.7201 68.5635 -43.5498  255 255 255
-62.8977 56.5494 -17.4274  255 255 255
-1.05136 71.6442 -50.2073  255 255 255
59.5566 86.6448 -81.2907  255 255 255
-61.2024 56.7538 -18.2597  255 255 255
-59.7667 57.0453 -18.9142  255 255 255
19.0475 76.6218 -61.2646  255 255 255
-62.0941 56.3276 -18.066  255 255 255
58.2296 16.239 22.51  255 255 255
-13.7005 67.6734 -43.7829  255 255 255
55.1271 84.6111 -79.4413  255 255 255
-38.5923 61.8305 -30.9824  255 255 255
-38.5889 61.8245 -30.8761  255 255 255
-38.5914 61.6576 -30.7053  255 255 255
-51.547 58.472 -23.5992  255 255 255
-64.9923 55.4297 -16.9358  255 255 255
-64.9923 55.4297 -16.9358  255 255 255
-37.8354 61.8104 -31.304  255 255 255
-37.8207 61.8282 -31.2539  255 255 255
20.2769 76.2089 -62.3348  255 255 255
22.7121 76.7612 -63.6447  255 255 255
-51.9124 58.4644 -23.9834  255 255 255
-51.8929 58.4921 -23.9707  255 255 255
-32.0831 63.188 -34.4775  255 255 255
-24.6746 64.7079 -38.7569  255 255 255
-24.6697 64.7817 -38.7838  255 255 255
-24.6746 64.7079 -38.7569  255 255 255
-42.468 60.35 -29.1327  255 255 255
-42.458 60.3389 -29.1193  255 255 255
-61.3631 55.6288 -18.9048  255 255 255
-0.620865 70.1937 -51.7334  255 255 255
48.1845 26.5204 6.46989  255 255 255
-62.3598 55.3059 -18.7692  255 255 255
-43.1935 59.7233 -28.932  255 255 255
16.4737 74.3038 -61.1265  255 255 255
-63.4688 54.923 -18.04  255 255 255
-23.0135 64.741 -40.2576  255 255 255
19.9114 74.899 -62.8372  255 255 255
19.9114 74.899 -62.8372  255 255 255
-18.0114 65.5024 -42.5286  255 255 255
21.716 75.0153 -63.7936  255 255 255
21.8089 75.1438 -64.0575  255 255 255
-52.8796 57.3667 -24.1644  255 255 255
-52.8696 57.425 -24.2547  255 255 255
-46.581 58.6553 -27.3382  255 255 255
-46.5785 58.7073 -27.4407  255 255 255
-20.4252 64.8452 -41.7637  255 255 255
17.1263 73.9091 -61.932  255 255 255
56.2037 34.482 -8.19809  255 255 255
57.6042 14.7146 21.7877  255 255 255
-1.32088 69.1451 -52.1759  255 255 255
-1.24829 69.2748 -52.4404  255 255 255
-43.7505 59.2614 -29.6617  255 255 255
-62.2886 54.6708 -19.6088  255 255 255
-62.8497 54.4227 -19.3172  255 255 255
63.5721 83.6981 -85.8685  255 255 255
67.4426 84.7099 -88.2171  255 255 255
67.4106 84.721 -88.1711  255 255 255
5.3998 70.1256 -56.6277  255 255 255
33.5797 77.1607 -71.7528  255 255 255
56.2708 16.0568 18.3041  255 255 255
57.4658 14.8636 19.917  255 255 255
-50.1425 56.7523 -26.2714  255 255 255
53.5547 14.2468 20.8659  255 255 255
47.7606 79.4538 -79.19  255 255 255
-31.5521 60.8354 -37.0635  255 255 255
62.8978 82.8607 -87.8483  255 255 255
-50.9085 55.6859 -27.5467  255 255 255
-2.59021 66.5342 -54.1445  255 255 255
10.1488 69.2385 -60.9987  255 255 255
60.6083 80.3748 -87.3893  255 255 255
-54.702 54.4653 -25.4634  255 255 255
-2.59015 65.9677 -54.0468  255 255 255
-44.6219 56.4452 -31.4187  255 255 255
57.2147 31.0144 -10.2784  255 255 255
15.5455 69.562 -64.3119  255 255 255
56.8128 31.5025 -11.4895  255 255 255
52.3917 18.3027 10.2854  255 255 255
-45.5664 55.8421 -31.1792  255 255 255
-45.5652 55.848 -31.1857  255 255 255
16.1087 70.6194 -66.8325  255 255 255
-36.9341 57.4067 -35.7277  255 255 255
67.9333 80.6639 -92.3631  255 255 255
35.7515 73.6532 -75.7321  255 255 255
52.3424 17.4948 10.0817  255 255 255
61.8984 78.5564 -89.5929  255 255 255
-45.7819 55.3655 -32.0559  255 255 255
-21.7189 60.3013 -45.3946  255 255 255
-61.3786 50.8013 -22.0633  255 255 255
76.9524 81.2689 -98.0218  255 255 255
42.9343 73.6693 -80.8881  255 255 255
50.9978 18.415 6.69109  255 255 255
56.0483 30.1546 -13.4191  255 255 255
-24.3891 58.8984 -44.2459  255 255 255
35.2189 71.934 -77.3435  255 255 255
56.1494 29.7529 -12.8697  255 255 255
51.7714 35.2506 -21.6886  255 255 255
-45.9868 54.045 -32.514  255 255 255
-60.2605 50.7477 -24.0293  255 255 255
36.7966 72.0101 -78.9141  255 255 255
51.8361 34.1601 -20.6154  255 255 255
-60.6764 47.8171 -19.6823  255 255 255
51.7716 34.4788 -21.291  255 255 255
-21.9078 58.6144 -46.0665  255 255 255
-46.2794 53.018 -32.3691  255 255 255
74.7649 78.8465 -99.0025  255 255 255
48.319 20.0923 1.80898  255 255 255
21.0008 67.1501 -70.7215  255 255 255
18.3284 66.3515 -69.693  255 255 255
56.0427 11.3323 13.948  255 255 255
53.5787 31.0184 -18.5603  255 255 255
49.9676 17.8162 4.04336  255 255 255
56.3628 27.8664 -14.1689  255 255 255
-32.6436 55.3358 -41.2538  255 255 255
50.2809 34.9608 -25.6481  255 255 255
51.8526 32.6304 -22.3086  255 255 255
51.8527 32.6386 -22.3156  255 255 255
-52.8107 50.8677 -30.0727  255 255 255
-52.8307 50.8079 -29.8975  255 255 255
9.33026 63.3469 -65.4473  255 255 255
54.906 29.0208 -17.6107  255 255 255
-47.2398 51.5283 -33.2692  255 255 255
54.652 29.1913 -18.1421  255 255 255
53.4534 13.4218 8.78777  255 255 255
53.4236 30.4485 -20.1494  255 255 255
20.2671 65.2453 -71.8628  255 255 255
54.5332 29.0829 -18.6904  255 255 255
-52.0259 50.5044 -31.2055  255 255 255
-33.7963 54.1774 -41.6393  255 255 255
55.0659 28.2203 -17.7009  255 255 255
45.8052 69.7624 -85.8477  255 255 255
28.0614 65.2181 -74.9148  255 255 255
51.6105 15.1194 4.81145  255 255 255
56.1663 6.04796 18.2555  255 255 255
-33.0486 53.253 -42.7353  255 255 255
62.2593 2.3483 22.784  255 255 255
-1.37034 58.8726 -61.162  255 255 255
-60.068 47.4202 -27.8663  255 255 255
-50.5456 49.2662 -33.3634  255 255 255
49.3355 68.5582 -90.1445  255 255 255
-35.3556 51.9018 -42.3585  255 255 255
51.4263 11.2356 7.46818  255 255 255
53.6701 27.5593 -21.6275  255 255 255
33.9284 64.6856 -81.8539  255 255 255
-29.0379 52.5615 -46.4922  255 255 255
55.9577 24.5905 -18.1498  255 255 255
26.2543 63.1928 -78.6711  255 255 255
57.0728 6.39153 13.2716  255 255 255
-46.0993 48.9391 -36.9433  255 255 255
-7.69402 55.9442 -59.5288  255 255 255
16.087 60.8749 -74.3077  255 255 255
51.6022 12.0368 2.99434  255 255 255
-11.3134 54.7953 -58.0832  255 255 255
-18.9871 52.9431 -53.2382  255 255 255
49.3805 30.4815 -30.8652  255 255 255
23.1759 60.8521 -78.5066  255 255 255
-55.1002 46.1682 -32.6898  255 255 255
-5.61453 55.1371 -61.8497  255 255 255
28.8432 60.938 -81.9061  255 255 255
-60.5453 42.1751 -25.3406  255 255 255
-20.3935 51.781 -53.6844  255 255 255
51.4197 10.7036 1.62992  255 255 255
51.2613 10.6549 1.82243  255 255 255
28.9812 60.6455 -82.855  255 255 255
-59.0322 44.2832 -30.5966  255 255 255
-43.1643 46.6667 -39.9832  255 255 255
-60.55 44.0636 -30.4648  255 255 255
-24.5229 50.4753 -52.033  255 255 255
65.4365 -4.66489 25.3337  255 255 255
53.9872 7.38003 5.79341  255 255 255
55.6863 22.0179 -21.6  255 255 255
9.373 55.8693 -72.3018  255 255 255
52.1265 25.171 -27.5976  255 255 255
-4.80024 52.8108 -64.1581  255 255 255
57.4886 0.871317 14.5591  255 255 255
58.0094 1.95254 12.2824  255 255 255
62.6944 -2.88589 19.9543  255 255 255
-54.4399 44.0962 -35.5074  255 255 255
58.5723 1.24829 12.9809  255 255 255
56.0752 4.0603 8.2067  255 255 255
-1.38476 52.8511 -67.1667  255 255 255
26.4234 57.7054 -83.6707  255 255 255
58.2364 -0.993082 16.8535  255 255 255
50.2291 10.1456 -2.4018  255 255 255
57.5235 2.15279 10.4967  255 255 255
52.5002 7.50781 1.63524  255 255 255
-50.0474 43.9473 -38.1523  255 255 255
50.6905 24.6284 -31.0718  255 255 255
58.8621 0.18056 12.3678  255 255 255
-21.5913 47.5775 -54.7344  255 255 255
56.8367 2.27656 8.72586  255 255 255
-26.3292 47.5548 -53.3823  255 255 255
-26.3292 47.5548 -53.3823  255 255 255
48.7998 10.7269 -5.20179  255 255 255
54.5801 4.62823 4.84538  255 255 255
59.0982 -0.123096 12.5025  255 255 255
66.1484 -7.68205 25.215  255 255 255
-54.1768 42.5064 -36.4774  255 255 255
61.8718 -3.38507 17.0124  255 255 255
-8.47466 49.5772 -64.7947  255 255 255
62.0373 -3.58292 16.6039  255 255 255
-58.0078 41.2123 -34.1628  255 255 255
-6.80768 49.5933 -65.9759  255 255 255
10.7984 52.4469 -76.7462  255 255 255
57.6611 0.336426 9.68978  255 255 255
-54.065 41.715 -37.5309  255 255 255
58.061 -0.180757 9.97392  255 255 255
58.2463 -0.492845 10.2938  255 255 255
61.0504 -3.3204 14.5741  255 255 255
-62.5773 39.6393 -32.4575  255 255 255
-46.6384 41.8333 -41.5377  255 255 255
-46.5026 42.518 -42.8877  255 255 255
62.9042 -5.82396 17.8314  255 255 255
-60.9061 39.3685 -32.9525  255 255 255
66.1524 -9.45852 23.7206  255 255 255
66.1524 -9.45852 23.7206  255 255 255
58.0451 -0.936756 9.23732  255 255 255
8.64514 -1.60937 24.0496  255 255 255
59.9063 -3.07853 12.5087  255 255 255
65.9518 -9.40088 23.2824  255 255 255
1.00631 -1.56204 25.6768  255 255 255
60.9696 -4.11996 14.0952  255 255 255
60.6957 -3.86403 13.6358  255 255 255
-62.6694 39.1938 -33.2695  255 255 255
1.25243 -1.5729 25.6828  255 255 255
8.59001 -1.96127 24.2742  255 255 255
54.7302 17.0884 -26.8176  255 255 255
-37.1407 42.5866 -48.8841  255 255 255
59.9938 -3.72008 12.1032  255 255 255
-36.7712 42.6282 -49.6809  255 255 255
58.8656 -2.72565 10.1065  255 255 255
-39.3389 41.5785 -47.3825  255 255 255
-58.8506 39.0594 -36.4115  255 255 255
-13.6746 44.8367 -62.7813  255 255 255
5.61722 48.603 -76.1941  255 255 255
-48.3598 40.0444 -43.3591  255 255 255
-9.37353 45.8666 -68.1029  255 255 255
7.15978 -6.39817 30.4561  255 255 255
53.44 1.61033 0.400745  255 255 255
-13.9133 43.8578 -63.5401  255 255 255
-47.86 39.5922 -43.7214  255 255 255
-54.6879 38.817 -40.1403  255 255 255
-48.4348 39.3275 -43.4668  255 255 255
-36.8408 41.3654 -51.3024  255 255 255
66.5795 -12.1324 23.0514  255 255 255
-50.7221 39.1733 -42.7382  255 255 255
-22.0629 42.8593 -59.6367  255 255 255
5.12723 -7.39624 32.0114  255 255 255
-13.5095 42.7018 -62.3116  255 255 255
-52.1408 38.4763 -41.8789  255 255 255
-37.1209 40.6367 -51.3017  255 255 255
60.0983 -5.71244 10.7082  255 255 255
-9.78007 -1.99636 24.9846  255 255 255
5.03193 -8.05638 32.0815  255 255 255
0.120486 -7.23859 32.0876  255 255 255
0.335233 -7.55619 32.2903  255 255 255
-3.43411 -6.49318 31.2575  255 255 255
55.8822 -1.87774 2.60712  255 255 255
0.816858 -8.09746 32.6755  255 255 255
-0.556071 -7.95249 32.5572  255 255 255
61.0389 -7.52768 11.6831  255 255 255
-54.2242 37.0024 -41.4834  255 255 255
-36.285 39.5198 -52.949  255 255 255
-23.5867 41.0589 -61.4073  255 255 255
-54.4987 36.6199 -41.319  255 255 255
-10.5898 -3.70702 25.8346  255 255 255
49.417 3.60926 -9.39556  255 255 255
-12.5571 -1.1563 21.0435  255 255 255
-31.0631 39.8551 -57.0986  255 255 255
61.3636 -8.62262 12.0241  255 255 255
67.9244 -13.136 18.9597  255 255 255
67.9244 -13.136 18.9597  255 255 255
-3.54768 -8.21184 32.1512  255 255 255
19.6203 36.9159 -70.212  255 255 255
-6.64886 -7.23015 30.6411  255 255 255
-8.83036 42.1553 -71.7286  255 255 255
-12.4409 -3.61833 24.9836  255 255 255
-4.19087 42.4169 -74.2592  255 255 255
-4.08796 42.5689 -74.6655  255 255 255
-1.99689 42.6467 -76.009  255 255 255
-3.03609 -9.16154 32.7384  255 255 255
-6.1987 -8.23894 31.3083  255 255 255
68.2679 -14.6232 18.7705  255 255 255
-6.34988 -8.55207 31.4642  255 255 255
58.6846 -10.583 12.9805  255 255 255
61.161 -9.88535 10.6645  255 255 255
-49.4341 35.5924 -46.6408  255 255 255
48.8136 2.35076 -11.5912  255 255 255
-31.3203 37.7948 -58.1682  255 255 255
62.9884 -11.6175 13.0223  255 255 255
62.9851 -11.6212 13.031  255 255 255
-9.39966 -7.62643 29.3531  255 255 255
-6.31893 -9.30108 31.7631  255 255 255
55.8761 -5.186 0.512253  255 255 255
49.4887 1.02575 -10.856  255 255 255
9.3002 33.7344 -66.7754  255 255 255
53.996 -3.49027 -2.99649  255 255 255
11.6649 32.6678 -65.9825  255 255 255
-13.4688 -4.68615 23.8456  255 255 255
-55.3745 33.8395 -43.7362  255 255 255
54.7834 -4.47279 -2.01036  255 255 255
-51.1395 34.2736 -46.6817  255 255 255
-38.2499 35.5216 -54.9418  255 255 255
-35.7301 35.7052 -57.083  255 255 255
-46.9305 34.0319 -49.7121  255 255 255
60.8421 -11.0902 8.05227  255 255 255
59.8688 -10.315 6.32234  255 255 255
-13.184 -6.70003 25.7988  255 255 255
-13.8293 -5.87794 24.2594  255 255 255
-23.2712 36.605 -65.554  255 255 255
-6.05141 -10.9726 32.4171  255 255 255
-48.5653 33.5263 -48.9743  255 255 255
59.0207 -9.62806 4.6414  255 255 255
53.4506 -4.31098 -5.09687  255 255 255
59.8796 -10.6847 6.46305  255 255 255
-12.588 -7.85998 27.1024  255 255 255
51.7652 -2.99367 -8.31332  255 255 255
-28.2412 35.0528 -63.3547  255 255 255
-31.0242 34.4955 -61.3242  255 255 255
-12.9076 -8.25415 26.6225  255 255 255
60.2573 -12.1386 6.00849  255 255 255
66.899 -16.4381 12.971  255 255 255
-3.96392 -13.1638 33.4028  255 255 255
57.5144 -9.80064 1.23655  255 255 255
-8.03037 -11.7581 31.7291  255 255 255
5.23738 -15.4018 33.7998  255 255 255
67.6421 -18.1328 14.403  255 255 255
5.50605 -15.5232 33.5213  255 255 255
59.927 -12.7171 4.854  255 255 255
51.6384 -5.1753 -10.1784  255 255 255
-16.403 -3.14738 12.332  255 255 255
-0.972165 -15.3864 34.0673  255 255 255
-51.3278 26.6706 -45.487  255 255 255
-19.2632 0.0254595 3.847  255 255 255
57.0273 -11.3932 -2.31253  255 255 255
55.8985 -11.6881 -1.12628  255 255 255
-14.5133 -10.3839 26.0736  255 255 255
58.0365 -12.6598 -0.507787  255 255 255
-17.2553 -5.06405 14.1249  255 255 255
58.8407 -13.7274 1.0393  255 255 255
-5.04532 -15.514 33.1711  255 255 255
-5.04532 -15.514 33.1711  255 255 255
-38.8749 29.5865 -60.134  255 255 255
59.1035 -14.3278 1.32504  255 255 255
59.0861 -14.3023 1.32195  255 255 255
-10.2899 -13.7429 30.584  255 255 255
-17.7246 -5.88111 15.0185  255 255 255
8.14126 -18.0685 32.4966  255 255 255
0.955838 -17.5622 34.0706  255 255 255
-17.1944 -8.80612 20.9745  255 255 255
-7.50753 -15.4889 32.2924  255 255 255
56.7327 -12.9684 -3.83704  255 255 255
63.1823 -17.408 3.69209  255 255 255
9.60957 -18.843 31.5893  255 255 255
9.60957 -18.843 31.5893  255 255 255
-20.6911 -3.39121 7.495  255 255 255
54.3712 -11.8009 -8.14661  255 255 255
-17.1494 -10.4463 21.6805  255 255 255
-2.98105 -17.9584 33.5971  255 255 255
-2.98105 -17.9584 33.5971  255 255 255
4.75171 -19.2517 32.8903  255 255 255
-17.0802 -10.8454 22.1849  255 255 255
-7.94056 -16.5594 32.0176  255 255 255
-19.3469 -9.67636 19.1884  255 255 255
-3.03652 -18.6103 33.5177  255 255 255
25.013 -20.8929 24.8047  255 255 255
5.14303 -20.4362 32.7547  255 255 255
5.20521 -20.4033 32.6678  255 255 255
-16.0279 -13.2511 24.7268  255 255 255
-16.0302 -13.2514 24.7552  255 255 255
2.94182 -20.3719 33.1131  255 255 255
60.8207 -19.4264 1.35459  255 255 255
61.0489 -19.8845 2.16016  255 255 255
-7.22217 -18.1979 32.142  255 255 255
60.3811 -19.2389 0.05733  255 255 255
-15.6838 -13.6133 24.2208  255 255 255
-15.6838 -13.6133 24.2208  255 255 255
-5.98714 -18.8946 32.5411  255 255 255
-1.80519 -20.0799 33.1198  255 255 255
7.59278 -21.5673 31.778  255 255 255
4.98763 -21.6523 32.6024  255 255 255
-59.3182 22.0898 -50.8278  255 255 255
-17.8206 -14.4665 24.5857  255 255 255
-25.3166 -9.14038 14.1329  255 255 255
-25.3369 -9.16549 14.2054  255 255 255
59.8208 -20.3229 -2.17082  255 255 255
8.59661 -23.3196 32.8279  255 255 255
11.7814 -23.9015 31.7806  255 255 255
62.5199 -25.8503 6.04059  255 255 255
-23.4117 -12.3463 17.7836  255 255 255
-19.988 -15.4362 23.759  255 255 255
62.3289 -24.6642 1.7229  255 255 255
0.434064 -23.399 33.5957  255 255 255
1.77056 -23.9237 33.9878  255 255 255
-19.9391 -15.69 23.6085  255 255 255
-15.3873 -18.5177 28.7974  255 255 255
66.3086 -28.5502 8.82018  255 255 255
62.967 -25.1736 1.00382  255 255 255
59.1651 -22.1987 -5.6622  255 255 255
57.9073 -22.3424 -4.27941  255 255 255
-25.3772 -13.3653 19.1746  255 255 255
63.9388 -26.5898 3.23363  255 255 255
-25.7263 -13.7816 19.3704  255 255 255
-23.3892 3.91913 -33.9526  255 255 255
-14.7983 -20.3563 29.8427  255 255 255
66.9098 -27.3921 -0.659384  255 255 255
-13.7192 -21.3992 30.5112  255 255 255
-5.98997 -24.2598 33.732  255 255 255
-13.9659 -21.5249 30.3161  255 255 255
63.5383 -28.6273 1.4805  255 255 255
15.3624 -28.7229 32.2791  255 255 255
-21.5472 -17.9209 23.9633  255 255 255
-25.4893 -16.5778 22.3381  255 255 255
-15.8156 -20.8479 28.9365  255 255 255
-16.0062 -20.823 28.8069  255 255 255
-11.4668 -22.9468 31.9467  255 255 255
63.5907 -28.7536 0.131174  255 255 255
-16.6109 -20.7303 28.258  255 255 255
9.2023 -28.5968 34.2727  255 255 255
63.1544 -28.9909 0.157064  255 255 255
-16.3609 -21.0775 28.3472  255 255 255
-16.3661 -21.0803 28.36  255 255 255
14.9366 -29.3368 32.3916  255 255 255
-13.7 -22.4357 30.2195  255 255 255
-4.85457 -25.6543 33.5199  255 255 255
-1.99227 -26.6624 34.0639  255 255 255
6.82297 -28.9847 34.5315  255 255 255
13.5937 -29.8079 32.4344  255 255 255
-24.0157 -18.7887 24.1292  255 255 255
-19.6583 -20.6631 26.9699  255 255 255
-12.5295 -23.5996 30.7454  255 255 255
-11.4194 -24.0794 31.5796  255 255 255
71.3616 -31.8929 -1.02088  255 255 255
14.1908 -29.9628 31.8898  255 255 255
65.2845 -32.2001 3.24885  255 255 255
65.2845 -32.2001 3.24885  255 255 255
-25.3617 -17.9351 21.3654  255 255 255
-54.5516 6.18381 -35.8257  255 255 255
-29.7122 -0.636489 -30.5755  255 255 255
4.20035 -29.2999 35.2255  255 255 255
15.7427 -30.3772 30.2244  255 255 255
15.7427 -30.3772 30.2244  255 255 255
69.0211 -32.1378 -1.55304  255 255 255
67.7464 -35.0403 7.04535  255 255 255
-18.1897 -22.7873 29.2217  255 255 255
-22.8663 -20.8757 25.5331  255 255 255
-21.047 -22.5669 28.8317  255 255 255
-23.2747 -20.7212 24.4303  255 255 255
-23.9364 -20.3294 23.7316  255 255 255
-18.9282 -23.5928 29.9782  255 255 255
-27.4493 -4.31196 -26.0026  255 255 255
67.7679 -36.2445 6.43772  255 255 255
3.11266 -30.6893 35.9377  255 255 255
6.53851 -31.3088 35.057  255 255 255
-0.39957 -30.4687 36.4011  255 255 255
-23.3743 -21.2662 23.1013  255 255 255
-20.6426 -24.2933 27.8507  255 255 255
-20.6669 -24.3081 27.923  255 255 255
-13.6034 -27.8423 34.3426  255 255 255
-12.6501 -28.5925 35.7753  255 255 255
1.11152 -31.688 35.0901  255 255 255
