ply
format ascii 1.0
element vertex 1243
property float x
property float y
property float z
property uchar red
property uchar green
property uchar blue
end_header
-69.4536 22.9471 -65.0721  255 255 255
-36.2241 17.1441 -60.1588  255 255 255
53.3028 1.62347 -40.0365  255 255 255
-12.4515 3.90258 26.9347  255 255 255
71.8277 -6.64838 18.8827  255 255 255
-82.2523 24.3697 -63.4479  255 255 255
60.042 -2.87834 -9.07899  255 255 255
56.5215 -1.90145 -18.2597  255 255 255
71.2259 -7.6962 17.0902  255 255 255
-51.511 17.3613 -60.3471  255 255 255
-66.8765 19.208 -62.3646  255 255 255
52.5735 -1.69694 -34.8492  255 255 255
-84.9934 21.182 -60.6259  255 255 255
8.26762 -2.08778 34.0805  255 255 255
12.6152 -2.85841 31.9676  255 255 255
-11.6282 0.121401 32.4152  255 255 255
-64.1694 15.7605 -59.437  255 255 255
-71.9269 16.4309 -56.7379  255 255 255
-71.9268 16.4309 -56.7378  255 255 255
13.2695 -4.05923 32.4819  255 255 255
13.6417 -4.04767 31.4441  255 255 255
-72.8363 16.1358 -60.4323  255 255 255
-44.1477 9.85847 -50.2707  255 255 255
76.0329 -13.5356 25.6079  255 255 255
-7.03627 -2.37458 35.6072  255 255 255
0.28467 -3.70936 37.3285  255 255 255
69.5479 -11.6589 6.86398  255 255 255
-0.27821 -3.90405 38.121  255 255 255
-40.474 8.16138 -48.4728  255 255 255
14.2724 -6.2281 32.6394  255 255 255
58.4347 -9.73375 -19.8715  255 255 255
53.2315 -8.71499 -26.9663  255 255 255
0.418195 -5.27499 38.2781  255 255 255
53.8175 -10.1532 -25.2039  255 255 255
-5.55082 -4.97351 37.8242  255 255 255
70.5051 -15.1545 10.1315  255 255 255
74.2191 -15.9504 14.3613  255 255 255
-34.3312 3.4766 -42.4366  255 255 255
64.5966 -13.6825 -7.87675  255 255 255
-93.6389 13.7876 -58.1477  255 255 255
64.9146 -14.1422 -8.88012  255 255 255
63.6827 -14.4393 -9.48898  255 255 255
63.6827 -14.4393 -9.48892  255 255 255
-52.21 5.39969 -44.9141  255 255 255
-18.5188 -3.91106 29.1884  255 255 255
55.2056 -13.3481 -21.2432  255 255 255
71.7048 -17.3072 10.0761  255 255 255
62.3786 -15.3517 -15.3395  255 255 255
68.7336 -17.9316 1.96018  255 255 255
76.8525 -20.3455 22.7047  255 255 255
-42.984 -0.0633044 -38.2572  255 255 255
-42.9713 -0.0214269 -37.9424  255 255 255
10.5168 -11.3118 36.6326  255 255 255
65.1309 -20.2086 -9.24432  255 255 255
-44.6525 -3.00962 -34.1663  255 255 255
69.2042 -22.7795 -0.598975  255 255 255
-6.22344 -11.0867 39.3618  255 255 255
66.1653 -23.2147 -9.98796  255 255 255
26.6678 -16.9106 27.2827  255 255 255
-11.1128 -10.8937 37.9661  255 255 255
-63.2865 -1.93612 -35.7762  255 255 255
-36.7848 -6.76421 -29.3439  255 255 255
-23.3169 -9.16002 24.455  255 255 255
-22.5809 -9.43389 25.865  255 255 255
-51.9788 -5.03578 -31.4839  255 255 255
-46.7009 -6.26724 -30.7769  255 255 255
-53.5287 -5.08604 -31.7187  255 255 255
-77.3578 -1.15878 -37.4191  255 255 255
62.6123 -25.6862 -7.22954  255 255 255
59.1842 -25.8087 -5.40473  255 255 255
59.1843 -25.8087 -5.40475  255 255 255
-22.8123 -11.5578 26.7382  255 255 255
-6.88187 -14.1388 39.5037  255 255 255
-0.752524 -15.7289 39.892  255 255 255
-22.9586 -12.3179 27.9226  255 255 255
-86.2383 -2.71272 -35.9882  255 255 255
-86.2383 -2.71272 -35.9882  255 255 255
-20.3901 -14.0673 30.5027  255 255 255
63.7765 -29.9873 -0.674872  255 255 255
-61.6191 -10.1124 -25.3442  255 255 255
-61.6423 -10.1104 -25.5041  255 255 255
-56.3378 -11.3936 -23.2309  255 255 255
-45.6917 -13.3786 -21.3562  255 255 255
-13.147 -16.7648 36.6696  255 255 255
75.2559 -33.6106 7.99451  255 255 255
80.0811 -34.0196 20.8297  255 255 255
-50.6896 -13.2004 -21.7558  255 255 255
-60.4961 -11.5254 -23.8484  255 255 255
-54.5397 -12.4952 -21.6765  255 255 255
-26.2811 -15.4056 26.8616  255 255 255
18.0402 -22.9218 35.301  255 255 255
-52.8176 -13.1874 -20.8851  255 255 255
-18.3755 -16.9925 33.6225  255 255 255
-28.6856 -15.9432 26.3481  255 255 255
-21.2712 -17.5059 34.1808  255 255 255
-24.3095 -17.2495 30.5727  255 255 255
-43.3482 -16.8588 -16.5081  255 255 255
-43.1678 -17.2459 -16.1079  255 255 255
-24.0917 -17.9 30.8838  255 255 255
-11.0446 -19.9791 37.3451  255 255 255
59.7609 -35.183 6.03675  255 255 255
63.1701 -35.8855 6.78179  255 255 255
-45.5155 -18.1652 -15.1275  255 255 255
-73.3292 -13.8784 -21.7533  255 255 255
-48.0616 -18.0194 -15.3653  255 255 255
-44.318 -19.0288 -13.8077  255 255 255
-72.3814 -14.6246 -20.706  255 255 255
-11.1118 -21.2166 38.939  255 255 255
-26.2275 -19.1867 30.545  255 255 255
-72.0087 -15.0714 -20.8346  255 255 255
-26.6345 -19.3499 31.2237  255 255 255
-49.4438 -19.1246 -13.7513  255 255 255
-27.5925 -19.5233 31.0455  255 255 255
-9.14009 -22.2141 40.3573  255 255 255
-49.3286 -20.1722 -12.4947  255 255 255
-48.4869 -21.0218 -11.2698  255 255 255
-63.8074 -18.9161 -14.4286  255 255 255
-63.8074 -18.9161 -14.4286  255 255 255
-63.3732 -19.1385 -14.0019  255 255 255
-27.0965 -21.2987 33.5313  255 255 255
3.48188 -26.366 40.5055  255 255 255
-52.9779 -21.3835 -11.7796  255 255 255
-59.0273 -20.337 -12.451  255 255 255
-21.4475 -22.8631 34.9906  255 255 255
-51.1805 -22.1099 -9.91065  255 255 255
-69.8071 -19.3726 -14.18  255 255 255
-67.4294 -19.9357 -13.5065  255 255 255
-51.1663 -22.6471 -10.1305  255 255 255
25.8795 -34.9815 23.5529  255 255 255
-75.8816 -21.3465 -12.3619  255 255 255
54.9706 -43.1938 16.4774  255 255 255
67.2371 -45.1999 20.6811  255 255 255
-68.942 -22.7166 -10.4252  255 255 255
-12.9452 -27.4612 41.2214  255 255 255
-62.084 -24.5598 -7.06567  255 255 255
43.5864 -42.2817 15.5445  255 255 255
-60.4171 -25.0478 -6.24015  255 255 255
-61.7379 -25.1959 -6.37648  255 255 255
-60.3873 -25.5848 -6.31735  255 255 255
-23.3775 -27.1608 34.7867  255 255 255
-19.302 -27.8002 41.4606  255 255 255
-49.7189 -28.7047 -1.46024  255 255 255
50.1617 -46.3614 21.421  255 255 255
50.1617 -46.3614 21.421  255 255 255
40.3761 -45.1086 19.4153  255 255 255
-47.7283 -31.492 2.14243  255 255 255
-70.8663 -28.0274 -3.54219  255 255 255
-28.1282 -31.2 27.5795  255 255 255
18.7384 -40.4063 30.2523  255 255 255
-69.2298 -28.3636 -3.17987  255 255 255
-2.90936 -34.5312 40.5978  255 255 255
-2.90605 -34.5203 40.5234  255 255 255
-69.8649 -28.9121 -2.2232  255 255 255
-69.1522 -28.9985 -1.78428  255 255 255
-68.0178 -29.3161 -2.05408  255 255 255
48.8384 -49.0122 23.9347  255 255 255
37.3274 -47.6369 22.2549  255 255 255
-53.7246 -32.5745 3.08583  255 255 255
-28.6985 -34.1594 25.4397  255 255 255
-62.2292 -32.329 2.25865  255 255 255
-71.2451 -32.6372 2.3842  255 255 255
-71.1995 -32.6286 2.52688  255 255 255
-69.8601 -32.889 2.89864  255 255 255
-12.481 -39.7305 34.1034  255 255 255
31.594 -51.3147 26.9607  255 255 255
-63.1937 -36.1094 7.17809  255 255 255
-57.8545 -37.7207 10.5303  255 255 255
-60.6881 -38.1142 9.75383  255 255 255
24.5433 -52.5122 30.8848  255 255 255
24.6614 -52.6402 30.6923  255 255 255
-59.1037 -39.3755 11.4203  255 255 255
22.7369 -53.2876 31.9716  255 255 255
-35.216 -44.5302 23.3048  255 255 255
-31.7132 -45.1011 25.1709  255 255 255
-49.7881 -44.0555 16.5737  255 255 255
-47.6939 -44.4467 18.3486  255 255 255
-46.5719 -44.6803 19.0114  255 255 255
-70.9879 -41.9835 14.6885  255 255 255
-52.7156 -44.8641 18.1577  255 255 255
-13.8269 -51.5718 33.014  255 255 255
-51.0533 -46.9494 21.2379  255 255 255
-50.5107 -47.159 21.2375  255 255 255
-37.9164 -49.9487 25.5651  255 255 255
-55.0072 -47.8188 22.4324  255 255 255
-67.2048 -47.4663 21.7019  255 255 255
-45.1687 -50.9653 26.3573  255 255 255
24.5675 -62.5633 42.3089  255 255 255
-47.5682 -51.0672 26.4403  255 255 255
-58.6004 -49.881 25.3595  255 255 255
7.37541 -60.4911 39.8199  255 255 255
34.4442 -66.0831 46.0589  255 255 255
-46.6394 -52.6255 28.8325  255 255 255
-59.4394 -50.8568 25.99  255 255 255
-51.9435 -52.1274 28.0264  255 255 255
17.0378 -64.1008 43.531  255 255 255
-33.5495 -55.3283 32.7068  255 255 255
3.13342 -61.2594 41.2845  255 255 255
-46.1741 -53.8232 30.6562  255 255 255
-46.1741 -53.8232 30.6562  255 255 255
-20.3633 -57.9333 36.262  255 255 255
-35.2215 -55.3871 34.1369  255 255 255
-14.6261 -59.1553 37.478  255 255 255
-17.1506 -58.6983 37.2435  255 255 255
-2.00581 -61.5024 41.2956  255 255 255
-0.0475413 -62.082 41.6481  255 255 255
-17.7697 -59.1637 37.7436  255 255 255
15.2714 -65.0102 44.9807  255 255 255
6.15043 -63.3602 44.1665  255 255 255
-57.0828 -53.5541 29.7995  255 255 255
7.06147 -63.8102 43.8259  255 255 255
9.35296 -64.2568 44.4811  255 255 255
15.4092 -65.8724 46.028  255 255 255
-2.05071 -62.9413 43.3022  255 255 255
-2.05071 -62.9413 43.3022  255 255 255
-41.4232 -57.2611 34.5018  255 255 255
17.2263 -67.3685 47.6027  255 255 255
18.7075 -67.6536 47.9409  255 255 255
22.389 -69.0105 50.5275  255 255 255
7.5883 -66.7672 48.1165  255 255 255
-19.1679 -62.6538 43.0979  255 255 255
-19.1679 -62.6538 43.0978  255 255 255
-0.951325 -66.0899 47.4654  255 255 255
-14.9687 -63.7031 44.2874  255 255 255
-18.4434 -63.4394 44.3048  255 255 255
-2.37466 -66.9368 47.7117  255 255 255
-37.6096 -62.8941 42.6045  255 255 255
-37.0046 -63.4874 43.3863  255 255 255
-29.9067 -64.5772 45.3552  255 255 255
-34.7096 -64.1125 44.7805  255 255 255
-34.3668 -65.2192 45.7787  255 255 255
3.26904 67.6026 -81.6021  255 255 255
83.2373 74.1096 -129.676  255 255 255
38.0069 65.4491 -107.369  255 255 255
38.5435 59.864 -108.894  255 255 255
-2.11278 57.5569 -85.8041  255 255 255
63.1905 33.6865 -26.5213  255 255 255
63.6673 32.6256 -27.0203  255 255 255
-24.52 49.7766 -77.119  255 255 255
-1.59833 48.5436 -92.3777  255 255 255
-61.625 46.0675 -55.0337  255 255 255
-60.6627 45.3409 -56.3888  255 255 255
66.3419 12.913 19.5907  255 255 255
0.494626 42.53 -92.1869  255 255 255
-12.1462 43.4602 -89.2286  255 255 255
63.5991 21.9951 -31.218  255 255 255
-67.2691 43.1711 -53.9515  255 255 255
2.702 39.7123 -87.8061  255 255 255
-54.5613 41.2533 -62.7189  255 255 255
-9.88014 40.2568 -89.3329  255 255 255
-63.764 40.9374 -58.2081  255 255 255
55.4185 15.5504 -7.86734  255 255 255
-58.2645 40.1832 -61.784  255 255 255
-77.4922 39.6978 -47.219  255 255 255
-7.58172 36.1914 -82.8038  255 255 255
0.481446 34.9434 -81.993  255 255 255
-91.8353 40.1385 -39.6961  255 255 255
58.083 20.6064 -49.7027  255 255 255
-58.908 37.6505 -62.3557  255 255 255
-7.80827 33.3571 -80.3313  255 255 255
-66.6882 37.0831 -58.8855  255 255 255
19.1317 25.9196 -70.7782  255 255 255
19.3227 26.0309 -71.6197  255 255 255
-36.9532 35.3045 -80.2704  255 255 255
-71.9276 35.2994 -56.5047  255 255 255
68.276 3.97471 18.8205  255 255 255
-44.1253 33.1124 -73.8682  255 255 255
-19.3096 29.0145 -75.0377  255 255 255
-58.7259 32.5751 -65.7728  255 255 255
-66.5198 31.8333 -62.5842  255 255 255
56.3962 6.88678 -12.1266  255 255 255
-20.9813 24.817 -67.3855  255 255 255
-56.5403 30.4676 -71.7553  255 255 255
46.7013 13.3167 -55.4186  255 255 255
39.6049 13.713 -55.7677  255 255 255
-57.079 29.855 -71.8243  255 255 255
49.5518 11.7367 -53.6883  255 255 255
62.3488 8.98949 -46.3282  255 255 255
-63.3155 29.2115 -67.9693  255 255 255
62.8177 8.22049 -45.6579  255 255 255
-81.0605 30.2355 -59.5447  255 255 255
-40.0151 24.9404 -69.9706  255 255 255
-40.019 24.8745 -69.4525  255 255 255
-38.0403 24.4662 -69.0241  255 255 255
-1.21295 17.335 -59.6014  255 255 255
42.185 9.66216 -50.0599  255 255 255
41.806 9.58796 -48.9692  255 255 255
-61.193 26.9876 -70.144  255 255 255
-69.839 27.1059 -64.4343  255 255 255
-70.4784 26.3571 -61.6728  255 255 255
-66.4221 25.4993 -67.2365  255 255 255
-66.4539 25.5113 -67.4078  255 255 255
-66.2371 24.7664 -70.4987  255 255 255
-67.025 24.2351 -68.1971  255 255 255
-86.6728 23.7091 -52.6589  255 255 255
-75.6914 22.255 -66.9559  255 255 255
-81.2965 22.2027 -62.8469  255 255 255
53.0928 -1.87134 -34.287  255 255 255
-36.0641 12.1737 -53.4533  255 255 255
-74.7046 17.7021 -60.6959  255 255 255
-26.4082 8.97147 -49.7777  255 255 255
-38.6522 9.57652 -50.1564  255 255 255
63.507 -9.97414 -5.67051  255 255 255
-53.3978 11.0673 -53.1642  255 255 255
-53.3978 11.0673 -53.1642  255 255 255
27.5071 -6.29827 14.1193  255 255 255
-28.3403 6.25719 -45.7507  255 255 255
-57.9206 11.44 -52.6843  255 255 255
-58.1956 10.8509 -51.7597  255 255 255
-74.6277 13.5011 -56.0258  255 255 255
56.7213 -9.15567 -24.4081  255 255 255
9.19275 -6.26127 36.0479  255 255 255
-41.2143 5.63275 -44.5069  255 255 255
-40.515 5.07643 -44.1017  255 255 255
-81.5673 12.5326 -55.4134  255 255 255
-16.4646 -3.11851 30.6241  255 255 255
-63.0307 8.24024 -49.6361  255 255 255
-39.4595 3.97879 -43.4445  255 255 255
-21.6102 -2.56166 23.42  255 255 255
-64.0351 6.25169 -46.755  255 255 255
-49.0815 2.89231 -42.8123  255 255 255
52.9578 -14.6453 -19.4186  255 255 255
-51.9738 2.97853 -41.4595  255 255 255
61.7552 -16.352 -16.0336  255 255 255
-66.1012 5.11206 -44.6325  255 255 255
60.0513 -16.3785 -18.1699  255 255 255
-48.175 1.25435 -40.5049  255 255 255
-39.0411 -0.811994 -37.339  255 255 255
12.6091 -11.2958 35.6848  255 255 255
-47.51 -0.460286 -36.46  255 255 255
26.0369 -14.186 24.6035  255 255 255
-44.2155 -1.50896 -36.4459  255 255 255
62.2064 -20.6645 -11.972  255 255 255
65.3185 -21.8991 -10.0531  255 255 255
-93.2577 4.49122 -45.449  255 255 255
66.6222 -23.0937 -9.30764  255 255 255
65.1726 -24.3187 -7.93555  255 255 255
-75.2304 -1.25411 -38.6442  255 255 255
66.0657 -25.2551 -6.74521  255 255 255
79.6792 -27.2732 24.5707  255 255 255
-26.1867 -9.85025 23.7633  255 255 255
-41.132 -9.89958 -25.2528  255 255 255
1.91956 -16.0993 39.6831  255 255 255
-30.1521 -11.1388 20.3312  255 255 255
-46.4143 -9.33891 -25.7582  255 255 255
-51.0144 -9.20111 -26.0459  255 255 255
-62.3561 -7.85412 -28.2688  255 255 255
-28.366 -12.748 22.1545  255 255 255
55.3918 -29.2765 -2.58326  255 255 255
-41.1557 -13.4799 -21.1904  255 255 255
61.748 -30.7487 -0.0459449  255 255 255
-60.5624 -10.2873 -24.4756  255 255 255
19.5398 -22.1926 34.3136  255 255 255
-27.5971 -15.634 26.3342  255 255 255
61.057 -32.9835 4.04773  255 255 255
-27.6636 -16.1058 26.3216  255 255 255
79.4851 -35.7022 18.4569  255 255 255
-43.5206 -16.0848 -17.0593  255 255 255
-56.3162 -14.6796 -18.9013  255 255 255
-28.2693 -16.9864 28.1184  255 255 255
-48.0516 -16.764 -16.6243  255 255 255
50.6985 -33.3784 4.10169  255 255 255
-13.0533 -19.7284 37.5299  255 255 255
-25.5498 -19.0719 30.7802  255 255 255
-24.4041 -19.6473 31.3683  255 255 255
-26.0813 -19.5236 31.1587  255 255 255
-56.0352 -18.4833 -13.9875  255 255 255
-27.1786 -20.0021 31.6774  255 255 255
62.8692 -38.994 10.7229  255 255 255
-55.3309 -19.284 -13.9456  255 255 255
-25.2052 -20.924 33.1494  255 255 255
-53.5388 -19.8991 -12.6547  255 255 255
-28.5631 -21.0666 32.8158  255 255 255
9.8166 -27.798 41.1679  255 255 255
-20.2502 -22.735 35.5195  255 255 255
-18.9738 -23.1066 35.5633  255 255 255
-47.9577 -22.315 -9.70731  255 255 255
-56.7629 -21.1887 -11.7697  255 255 255
-56.8045 -21.2221 -12.1407  255 255 255
-14.5806 -24.4928 38.0839  255 255 255
-17.3022 -24.4346 37.4222  255 255 255
-61.9383 -22.5702 -8.99125  255 255 255
-53.7957 -23.9758 -7.42014  255 255 255
-58.0069 -24.3654 -7.84394  255 255 255
-56.5242 -24.7989 -6.63152  255 255 255
-57.6466 -25.0881 -6.18768  255 255 255
-59.3286 -25.9422 -5.46504  255 255 255
-15.8887 -27.9037 41.3455  255 255 255
-14.1121 -28.7415 41.8285  255 255 255
-7.03119 -30.8115 45.0096  255 255 255
48.9804 -49.2098 24.5822  255 255 255
45.838 -50.328 25.5555  255 255 255
-24.5542 -35.9616 27.2835  255 255 255
-58.0676 -34.8477 4.80578  255 255 255
-68.9046 -33.9762 4.28909  255 255 255
-69.2684 -34.1968 4.45786  255 255 255
-51.1883 -37.9476 10.5402  255 255 255
31.9377 -51.8171 28.8916  255 255 255
26.2973 -51.5938 29.6973  255 255 255
-84.4679 -35.9039 7.63018  255 255 255
-60.1065 -39.7085 12.2786  255 255 255
-61.8016 -40.3719 12.3384  255 255 255
-55.2497 -42.2336 15.3853  255 255 255
-53.3297 -43.3415 17.1097  255 255 255
-54.0051 -43.541 17.3126  255 255 255
-48.4099 -44.9154 18.3453  255 255 255
-53.0496 -44.9856 18.9112  255 255 255
-53.0407 -44.8999 19.1741  255 255 255
-14.145 -49.6262 32.8043  255 255 255
-5.01734 -51.6053 34.8314  255 255 255
-16.1212 -49.8184 32.2965  255 255 255
-38.4223 -49.6731 25.3656  255 255 255
39.6055 -64.0537 43.08  255 255 255
-38.7606 -50.7731 26.8129  255 255 255
-57.8895 -48.4858 23.2895  255 255 255
7.82581 -59.3093 37.8613  255 255 255
-65.097 -47.7222 22.1644  255 255 255
-33.4594 -52.4997 29.1875  255 255 255
-53.3614 -49.682 24.5743  255 255 255
-36.0951 -52.1812 28.5708  255 255 255
-37.0822 -52.6213 29.6915  255 255 255
6.45513 -60.2618 38.6646  255 255 255
6.82545 -60.445 40.3117  255 255 255
10.5601 -61.657 40.5427  255 255 255
-33.2301 -53.8202 32.2862  255 255 255
-46.7412 -53.1289 29.1117  255 255 255
6.29237 -61.5849 41.7385  255 255 255
20.2022 -64.5684 43.9805  255 255 255
-18.2074 -58.1475 36.6052  255 255 255
-49.5653 -53.6565 29.7199  255 255 255
-19.1927 -58.1963 36.5767  255 255 255
-18.5814 -58.4141 36.6542  255 255 255
-18.055 -58.6032 36.6752  255 255 255
-18.055 -58.6032 36.6752  255 255 255
-0.817563 -61.9632 41.7509  255 255 255
-0.444537 -62.3941 42.1882  255 255 255
9.99124 -64.9747 44.8818  255 255 255
-72.7148 -52.0295 28.5826  255 255 255
-62.3438 -53.7461 30.6654  255 255 255
-20.0951 -60.7012 39.5031  255 255 255
2.11637 -65.0953 45.4787  255 255 255
-1.02556 -65.2254 45.1028  255 255 255
-61.0045 -55.6054 33.4362  255 255 255
7.01426 -66.4358 48.3419  255 255 255
9.93305 -67.4051 48.303  255 255 255
2.41129 -66.2605 46.6939  255 255 255
-7.83311 -64.8415 44.6333  255 255 255
-1.34544 -66.0655 47.6156  255 255 255
-9.15282 -65.2173 45.1227  255 255 255
7.74934 -68.3023 49.3997  255 255 255
24.0075 -72.9656 54.7432  255 255 255
-36.2514 -64.2053 44.1314  255 255 255
-31.305 -64.9244 45.2914  255 255 255
-29.3187 -66.49 46.8458  255 255 255
71.9247 68.2537 -123.573  255 255 255
21.3291 53.5585 -104.196  255 255 255
-28.1319 51.4705 -72.1909  255 255 255
21.1709 52.0837 -103.734  255 255 255
61.9374 30.3071 -32.9718  255 255 255
62.5682 29.2778 -28.3272  255 255 255
-13.0618 49.3703 -79.5573  255 255 255
-60.2201 44.4225 -57.6258  255 255 255
66.1115 12.5843 18.802  255 255 255
-36.4277 39.3941 -76.0638  255 255 255
61.6566 18.0427 -41.8952  255 255 255
-38.323 36.5109 -78.4409  255 255 255
-38.323 36.5109 -78.4409  255 255 255
-9.47958 32.1148 -78.4169  255 255 255
-57.7109 36.4905 -64.5701  255 255 255
50.7592 21.2425 -64.0512  255 255 255
-10.8254 31.2163 -76.0948  255 255 255
26.718 25.117 -69.9048  255 255 255
-72.2336 36.3776 -56.1684  255 255 255
-58.3552 34.8363 -63.6436  255 255 255
5.00136 27.0121 -71.8223  255 255 255
24.5521 23.065 -66.2505  255 255 255
-25.4256 31.6658 -78.0929  255 255 255
-58.2804 32.9473 -67.4005  255 255 255
-53.3969 32.0709 -69.6776  255 255 255
-56.0033 32.1771 -68.4723  255 255 255
68.0563 2.56136 16.4086  255 255 255
-80.2673 34.1696 -57.437  255 255 255
-58.6446 31.3325 -67.0652  255 255 255
39.5297 15.1242 -57.1021  255 255 255
39.5298 15.1242 -57.1022  255 255 255
-38.7998 28.2685 -74.2394  255 255 255
-79.3057 31.9953 -59.4684  255 255 255
-38.2373 27.1498 -72.0417  255 255 255
-47.5981 28.361 -73.7719  255 255 255
-47.5981 28.361 -73.7719  255 255 255
-66.8097 28.882 -64.3363  255 255 255
59.5732 5.73046 -44.7311  255 255 255
-70.5539 23.0504 -66.6514  255 255 255
-50.861 18.7157 -60.2231  255 255 255
-61.9094 20.1279 -63.5917  255 255 255
12.7558 -1.56962 30.8051  255 255 255
59.2646 -4.03335 -13.3076  255 255 255
-19.7126 10.5244 -51.2934  255 255 255
51.2157 -1.94329 -34.9043  255 255 255
56.5492 -5.04548 -20.7567  255 255 255
57.0546 -5.92477 -19.3633  255 255 255
57.5633 -5.98086 -16.5617  255 255 255
15.0101 -4.47891 30.9816  255 255 255
-26.4913 6.41971 -45.5869  255 255 255
-75.3416 14.5073 -58.5016  255 255 255
55.7326 -9.01916 -25.8965  255 255 255
52.3341 -9.22384 -25.8915  255 255 255
2.43491 -5.67164 37.9778  255 255 255
-32.6711 4.23042 -44.9417  255 255 255
-53.8246 5.83832 -45.2438  255 255 255
14.6515 -9.45185 33.5681  255 255 255
63.3829 -15.528 -9.84643  255 255 255
28.2865 -12.687 21.9088  255 255 255
-55.3217 2.20023 -39.9761  255 255 255
-19.1342 -6.46934 30.0495  255 255 255
0.216477 -9.78439 39.8311  255 255 255
0.216479 -9.7844 39.8311  255 255 255
-41.5149 -2.73437 -34.5816  255 255 255
20.3605 -14.6426 29.8167  255 255 255
20.3605 -14.6426 29.8168  255 255 255
65.1402 -22.7375 -10.0191  255 255 255
-30.6063 -7.44767 15.6492  255 255 255
-48.277 -4.53222 -33.1389  255 255 255
-23.341 -9.46285 24.7017  255 255 255
-54.7201 -4.81956 -31.7639  255 255 255
-49.3718 -6.17288 -30.4494  255 255 255
62.9679 -25.1507 -5.47581  255 255 255
-54.1962 -5.72151 -30.6381  255 255 255
-49.0264 -7.58049 -28.0613  255 255 255
-46.1668 -8.41061 -27.2472  255 255 255
-57.1767 -6.66209 -27.2215  255 255 255
77.7316 -29.163 9.27133  255 255 255
-19.3293 -13.1839 31.6511  255 255 255
-24.4834 -13.0503 28.0301  255 255 255
-62.881 -8.49013 -28.6617  255 255 255
-60.505 -10.895 -23.4394  255 255 255
-27.3866 -14.9202 25.3796  255 255 255
-27.3866 -14.9202 25.3795  255 255 255
7.75959 -21.4245 38.9527  255 255 255
-61.0704 -13.8759 -22.3105  255 255 255
62.5435 -34.6313 5.2243  255 255 255
58.3578 -34.1688 4.43603  255 255 255
-46.1382 -17.0053 -16.2632  255 255 255
-43.8868 -18.0439 -15.0817  255 255 255
-22.2093 -21.0133 33.3047  255 255 255
-26.4322 -20.5851 32.7451  255 255 255
-61.0383 -19.7709 -12.9141  255 255 255
-55.391 -21.4204 -10.9818  255 255 255
-69.3723 -19.8729 -13.5191  255 255 255
-69.3724 -19.8729 -13.5193  255 255 255
-65.2254 -21.3527 -11.286  255 255 255
-64.5101 -21.8682 -11.2962  255 255 255
-64.3185 -21.742 -10.3888  255 255 255
-52.1394 -23.9877 -7.59409  255 255 255
-58.5088 -23.2421 -8.17439  255 255 255
-76.0326 -21.8083 -11.7177  255 255 255
3.03923 -31.5344 43.0593  255 255 255
62.3025 -47.0061 22.135  255 255 255
50.7249 -46.1166 20.1516  255 255 255
50.6459 -46.9306 21.3469  255 255 255
-24.4679 -33.4935 29.4824  255 255 255
-6.55873 -37.2271 39.2596  255 255 255
-26.0776 -41.1797 28.6125  255 255 255
23.3105 -52.7916 31.8471  255 255 255
-22.4502 -43.005 31.644  255 255 255
-51.5908 -41.2751 14.5371  255 255 255
-47.6503 -42.1621 15.7857  255 255 255
-2.31203 -51.3672 34.3525  255 255 255
-2.31205 -51.3671 34.3526  255 255 255
38.6321 -63.8171 43.3078  255 255 255
-49.4946 -49.6294 24.7715  255 255 255
-57.9761 -50.9821 26.7993  255 255 255
-16.8644 -57.8305 36.639  255 255 255
-28.077 -57.1733 35.111  255 255 255
-49.653 -54.4477 30.862  255 255 255
-12.7893 -60.5303 38.3206  255 255 255
-12.9351 -60.9759 39.6364  255 255 255
-46.9767 -56.2682 33.2227  255 255 255
-47.4107 -56.7715 33.6612  255 255 255
18.6058 -67.9707 49.2923  255 255 255
-35.4174 -59.0974 38.7372  255 255 255
-35.4174 -59.0974 38.7372  255 255 255
10.4154 -67.4464 47.9364  255 255 255
-18.451 -65.3415 45.5154  255 255 255
20.8576 -72.7098 54.5133  255 255 255
-34.8732 -63.2301 42.6359  255 255 255
19.0735 -73.2515 55.3412  255 255 255
16.4377 -73.8653 55.989  255 255 255
84.0446 72.238 -126.495  255 255 255
13.0107 59.9281 -92.1627  255 255 255
26.2085 58.1303 -101.375  255 255 255
-41.078 54.2105 -62.4516  255 255 255
-31.0312 54.1343 -71.6103  255 255 255
25.1478 53.8937 -108.545  255 255 255
-30.6403 51.1489 -73.7076  255 255 255
-2.55801 50.5809 -91.3331  255 255 255
-52.4942 47.0706 -60.7196  255 255 255
-60.21 46.9376 -54.4477  255 255 255
-11.975 46.7003 -83.4309  255 255 255
-5.43836 45.4318 -90.5919  255 255 255
55.9711 18.3184 -6.11847  255 255 255
-0.78245 38.8135 -87.2612  255 255 255
59.1262 22.8269 -45.5464  255 255 255
59.6258 13.2274 3.49623  255 255 255
-31.0867 39.8045 -79.8971  255 255 255
-0.537176 35.802 -83.4971  255 255 255
-38.7961 37.6043 -77.0149  255 255 255
42.5087 25.0889 -70.9116  255 255 255
-58.8956 36.9834 -63.1538  255 255 255
-71.4287 37.5641 -56.1806  255 255 255
-3.96037 31.3018 -77.8108  255 255 255
-35.3418 34.9046 -81.3317  255 255 255
-11.5371 30.3035 -75.6078  255 255 255
34.6555 19.0428 -59.1485  255 255 255
-78.4277 34.0675 -51.6196  255 255 255
-57.2833 33.0817 -67.5847  255 255 255
-31.429 29.3659 -73.4917  255 255 255
70.9055 1.04842 23.4696  255 255 255
-57.5233 30.6225 -69.6083  255 255 255
36.3589 14.3165 -55.5287  255 255 255
-60.3388 28.9318 -62.994  255 255 255
-85.2496 30.8819 -52.4802  255 255 255
-80.1668 31.3513 -61.6207  255 255 255
-68.6064 29.3669 -63.3349  255 255 255
-47.8617 27.021 -72.2656  255 255 255
-42.2649 25.6966 -70.4733  255 255 255
-64.788 28.4987 -67.2238  255 255 255
-68.0092 27.4728 -65.1803  255 255 255
-61.5917 26.9425 -69.9759  255 255 255
56.141 3.09692 -14.157  255 255 255
-47.8434 23.7564 -66.2853  255 255 255
6.58331 3.15339 26.4335  255 255 255
-50.5896 22.1513 -64.3673  255 255 255
72.4751 -5.6431 22.0237  255 255 255
57.4685 -0.315209 -15.4953  255 255 255
-86.998 25.3271 -54.1051  255 255 255
-87.7306 24.6776 -54.2419  255 255 255
-85.6095 24.577 -56.9624  255 255 255
-66.3054 22.5381 -67.2664  255 255 255
-79.4453 23.2463 -61.3873  255 255 255
-76.315 17.1547 -62.4309  255 255 255
-9.39665 -1.01731 33.2993  255 255 255
69.7515 -10.5985 10.389  255 255 255
52.7159 -9.52369 -25.3949  255 255 255
4.91869 -6.95883 37.9698  255 255 255
71.9803 -15.5675 10.1166  255 255 255
77.0107 -17.6254 25.2438  255 255 255
-70.4664 7.17462 -49.5541  255 255 255
-70.4664 7.17461 -49.554  255 255 255
66.0601 -16.5569 -3.7699  255 255 255
-53.9718 2.57547 -41.224  255 255 255
55.2242 -16.2017 -18.5189  255 255 255
-44.2609 -0.128933 -39.1571  255 255 255
-38.2259 -1.43064 -36.4604  255 255 255
-23.6418 -5.8162 20.6779  255 255 255
-55.5185 0.530688 -39.6726  255 255 255
64.5862 -20.2359 -13.2475  255 255 255
63.652 -21.1249 -11.428  255 255 255
-43.0121 -4.35308 -32.2172  255 255 255
76.2943 -24.3445 17.7146  255 255 255
-26.1224 -8.36003 22.6294  255 255 255
64.8183 -23.6304 -9.77383  255 255 255
-24.8454 -9.4461 24.123  255 255 255
63.28 -24.6908 -7.29079  255 255 255
67.1725 -27.1078 -4.7268  255 255 255
-0.725859 -15.3095 40.1156  255 255 255
6.57166 -17.4876 38.3917  255 255 255
56.0482 -27.1544 -3.0731  255 255 255
-40.6789 -11.3512 -22.6992  255 255 255
-26.102 -13.1916 27.3584  255 255 255
-62.1603 -9.09887 -26.7792  255 255 255
22.2413 -21.7911 34.5878  255 255 255
-20.6595 -14.6617 30.7745  255 255 255
4.07706 -19.2174 38.7486  255 255 255
-25.9034 -14.6698 27.4269  255 255 255
2.00487 -20.7272 38.583  255 255 255
-4.91758 -19.67 39.6411  255 255 255
-21.9057 -17.3674 33.4745  255 255 255
62.1619 -37.7056 8.45364  255 255 255
-21.3632 -20.8506 33.4075  255 255 255
-28.8167 -19.8321 31.6321  255 255 255
2.39133 -25.1581 40.9168  255 255 255
-22.9047 -21.509 33.6997  255 255 255
1.61788 -25.4374 40.7327  255 255 255
-8.60467 -26.6235 40.0415  255 255 255
53.9386 -43.3404 16.2071  255 255 255
-75.2217 -22.5443 -10.5072  255 255 255
-69.8898 -23.5085 -9.18776  255 255 255
-56.3423 -26.1907 -5.07685  255 255 255
-64.4128 -30.5026 -0.829205  255 255 255
-66.0386 -30.2405 -0.478669  255 255 255
-50.0362 -33.6713 4.68563  255 255 255
-24.1136 -35.5332 28.5434  255 255 255
-57.9813 -34.0018 4.44099  255 255 255
54.4612 -53.5703 29.571  255 255 255
-12.363 -39.3734 34.7748  255 255 255
-11.0607 -43.1385 32.793  255 255 255
-51.9645 -41.8932 15.3252  255 255 255
6.94991 -57.3966 37.9613  255 255 255
-56.943 -48.6411 23.7473  255 255 255
-56.943 -48.6411 23.7474  255 255 255
-45.6544 -51.1719 25.833  255 255 255
-3.72435 -59.1976 37.3946  255 255 255
45.4134 -68.6317 48.8936  255 255 255
32.5216 -66.6271 45.4236  255 255 255
-21.7821 -57.978 36.2834  255 255 255
18.4262 -67.9733 48.5183  255 255 255
-37.338 -59.7847 39.6718  255 255 255
-14.46 -64.8672 45.0967  255 255 255
-41.3381 -62.9746 42.5098  255 255 255
-17.571 -67.3829 48.168  255 255 255
-32.4873 -65.7313 45.9889  255 255 255
22.5367 56.7531 -102.511  255 255 255
9.8375 48.6235 -101.139  255 255 255
58.4494 28.6443 -43.1715  255 255 255
-10.879 43.0279 -87.8921  255 255 255
46.7891 29.4017 -77.1161  255 255 255
43.7789 28.4232 -75.9347  255 255 255
-16.4981 31.5735 -77.3134  255 255 255
64.599 6.39171 9.03499  255 255 255
62.7354 6.30638 4.67042  255 255 255
-2.17893 23.2183 -65.7777  255 255 255
55.4564 7.41431 -13.7475  255 255 255
-33.7246 23.5958 -67.357  255 255 255
-57.0592 27.422 -69.5781  255 255 255
-68.7377 28.3332 -64.6704  255 255 255
-74.2493 27.6269 -61.2327  255 255 255
-19.6608 18.6408 -61.0078  255 255 255
-32.8155 20.2221 -62.4672  255 255 255
-71.3679 25.1503 -65.1425  255 255 255
-82.3413 23.0127 -63.9132  255 255 255
-82.8654 20.4406 -56.7773  255 255 255
-63.1685 16.3798 -59.9773  255 255 255
6.81752 -4.11008 35.9263  255 255 255
-50.3177 9.06056 -49.74  255 255 255
-67.0089 8.42747 -49.5835  255 255 255
59.514 -13.1773 -20.801  255 255 255
59.5139 -13.1773 -20.8008  255 255 255
66.9396 -17.7744 -3.83855  255 255 255
67.1196 -17.7741 -4.16155  255 255 255
-67.0366 4.83694 -43.7257  255 255 255
-67.0366 4.83694 -43.7257  255 255 255
55.3789 -17.3957 -17.2816  255 255 255
-92.9406 7.82749 -50.6404  255 255 255
-7.37878 -9.37237 38.6512  255 255 255
-43.0424 -5.65029 -30.8977  255 255 255
-42.1354 -6.92536 -29.7909  255 255 255
-42.1688 -6.88856 -29.1133  255 255 255
66.521 -26.5795 -6.0152  255 255 255
-42.9465 -9.31161 -25.3606  255 255 255
-21.6472 -12.908 29.1655  255 255 255
53.0666 -28.3158 -1.62262  255 255 255
-46.5649 -15.9493 -18.2697  255 255 255
-11.4635 -26.0853 39.3975  255 255 255
-18.9825 -26.2235 39.5655  255 255 255
-16.0229 -27.015 37.4917  255 255 255
-57.2831 -26.7509 -3.28474  255 255 255
-57.4369 -26.8652 -4.04374  255 255 255
-61.2805 -26.6284 -6.64143  255 255 255
52.5813 -46.0947 20.3407  255 255 255
-48.6914 -29.5637 -0.563217  255 255 255
-48.6914 -29.5637 -0.563214  255 255 255
-82.4394 -30.6529 0.586951  255 255 255
-57.9576 -34.9892 6.66504  255 255 255
53.5149 -54.2394 30.4961  255 255 255
-48.8313 -44.3692 17.6875  255 255 255
-57.8229 -46.9637 21.3332  255 255 255
-38.2444 -50.5304 26.4625  255 255 255
-57.1911 -47.8638 23.3593  255 255 255
-60.1012 -48.2024 23.7055  255 255 255
-46.5675 -51.3049 27.1696  255 255 255
-62.421 -49.5155 25.0001  255 255 255
7.84588 -61.1994 39.4517  255 255 255
26.5505 -64.403 44.7408  255 255 255
12.8896 -65.1542 45.7321  255 255 255
-48.1474 -55.8813 32.974  255 255 255
-10.2433 -63.2298 42.7817  255 255 255
64.3171 35.1785 -22.7714  255 255 255
63.3929 23.6206 -33.8892  255 255 255
-55.7418 43.0208 -61.6001  255 255 255
33.9182 28.4372 -74.8614  255 255 255
21.9768 24.8471 -71.3624  255 255 255
36.8247 16.3446 -57.56  255 255 255
42.4339 14.8355 -56.0955  255 255 255
-82.5843 28.3704 -53.3673  255 255 255
-68.6958 25.574 -63.1551  255 255 255
-65.8197 25.6757 -70.7975  255 255 255
-83.1939 24.6189 -58.4939  255 255 255
-42.9375 8.32314 -48.9919  255 255 255
-36.8754 7.21294 -47.3598  255 255 255
56.1585 -9.83415 -24.2204  255 255 255
-65.3836 3.91034 -43.2065  255 255 255
-30.6861 -4.93336 12.401  255 255 255
67.4114 -21.2839 -7.21718  255 255 255
-43.6481 -3.16549 -34.2854  255 255 255
-58.4782 -12.6923 -24.313  255 255 255
-25.5538 -16.0275 27.931  255 255 255
-10.1035 -22.0723 39.9  255 255 255
-23.3843 -23.6018 36.7292  255 255 255
-53.3445 -27.1219 -4.81521  255 255 255
-33.5113 -29.0237 14.9335  255 255 255
-58.2761 -30.0595 1.22182  255 255 255
49.8109 -49.9512 23.5994  255 255 255
-47.2112 -42.8441 16.2233  255 255 255
-54.0312 -41.9863 14.7941  255 255 255
-9.26553 -48.2684 36.4787  255 255 255
32.7991 -67.1505 47.4038  255 255 255
32.7992 -67.1506 47.4036  255 255 255
26.9579 -66.6971 48.1096  255 255 255
0.208912 -62.629 43.3093  255 255 255
24.5746 -68.7621 49.9507  255 255 255
16.1641 -68.1701 49.2388  255 255 255
26.9496 -70.2239 51.2739  255 255 255
18.7031 -68.8591 49.9914  255 255 255
64.3573 67.5232 -119.088  255 255 255
6.23471 50.2752 -99.6599  255 255 255
63.9111 20.7916 -33.2178  255 255 255
58.5711 20.1538 -50.6869  255 255 255
28.8885 24.6919 -69.0061  255 255 255
-52.1319 30.6053 -73.6794  255 255 255
-53.8314 28.9344 -72.7141  255 255 255
-16.4805 2.01846 25.444  255 255 255
-83.0429 19.5965 -61.4648  255 255 255
-12.4357 -2.48866 35.5603  255 255 255
64.9788 -23.5353 -7.3526  255 255 255
64.1611 -25.3937 -6.01024  255 255 255
-8.97074 -13.5772 39.0257  255 255 255
-8.97074 -13.5772 39.0257  255 255 255
63.3548 -29.0004 -2.1872  255 255 255
51.412 -32.3847 3.60859  255 255 255
-29.3379 -18.883 30.424  255 255 255
-13.2688 -21.3425 38.3933  255 255 255
-24.4315 -21.7114 33.3413  255 255 255
-54.3278 -23.5879 -8.54841  255 255 255
-53.1603 -24.7577 -7.79715  255 255 255
-53.1603 -24.7576 -7.79715  255 255 255
-59.7514 -23.8654 -8.00395  255 255 255
-32.2577 -28.1954 19.6981  255 255 255
-51.4594 -32.6819 3.31961  255 255 255
3.40926 -37.8681 37.8253  255 255 255
-3.03701 -41.3572 35.7735  255 255 255
-52.6065 -39.5121 11.9273  255 255 255
-48.5654 -45.9447 20.3349  255 255 255
-57.694 -48.9891 23.1022  255 255 255
-61.606 -50.833 26.6573  255 255 255
-24.5492 -57.3468 35.171  255 255 255
1.33615 -66.3809 46.3172  255 255 255
0.735759 -66.9939 47.8278  255 255 255
-25.2899 -18.3227 29.6332  255 255 255
-25.5907 -37.485 24.9475  255 255 255
-49.7459 -45.3928 17.3293  255 255 255
31.0962 -65.9529 45.2243  255 255 255
26.4595 -68.0778 48.9786  255 255 255
17.6193 -68.1673 49.118  255 255 255
11.6587 -71.2406 53.0281  255 255 255
29.54 58.4553 -106.178  255 255 255
67.8162 -2.04767 12.4794  255 255 255
-24.1148 -7.74063 22.7014  255 255 255
-19.8172 -23.5052 35.7438  255 255 255
-26.5946 -7.39043 19.0498  255 255 255
-13.5355 -64.3375 44.3483  255 255 255
-4.7889 -12.5494 38.6501  255 255 255
-23.4984 -14.9721 32.346  255 255 255
-48.9069 39.7928 -67.5574  255 255 255
26.2664 108.219 -65.473  255 255 255
63.2887 62.1164 -2.67422  255 255 255
61.1909 65.7497 -8.9681  255 255 255
66.9892 58.0343 0.747307  255 255 255
75.4673 112.953 -92.1317  255 255 255
-62.757 80.6612 -30.2713  255 255 255
73.0022 108.118 -95.2367  255 255 255
-8.41408 89.6031 -57.601  255 255 255
60.9351 34.3192 24.7157  255 255 255
64.5802 52.3187 -7.98003  255 255 255
64.5377 48.6019 -8.25155  255 255 255
61.2372 30.1133 22.0883  255 255 255
-47.6634 74.8589 -43.5041  255 255 255
64.7126 26.1547 26.3944  255 255 255
57.4213 32.643 11.7544  255 255 255
25.438 85.5651 -84.9454  255 255 255
-46.3861 71.0625 -46.679  255 255 255
-42.1553 71.1554 -49.1255  255 255 255
-42.1553 71.1553 -49.1254  255 255 255
-15.2092 74.9901 -63.6827  255 255 255
59.6434 27.2455 15.5245  255 255 255
59.5074 26.8251 16.416  255 255 255
-45.8428 68.2495 -48.7808  255 255 255
59.9072 24.6484 16.0607  255 255 255
57.711 48.8331 -32.7321  255 255 255
37.7904 82.2933 -96.1554  255 255 255
-54.7335 65.4658 -45.478  255 255 255
-53.5683 65.1035 -46.5833  255 255 255
29.0465 76.7877 -88.5453  255 255 255
65.46 17.5339 25.8042  255 255 255
-53.9784 65.0577 -46.9335  255 255 255
59.0396 44.8211 -29.3679  255 255 255
-3.10146 70.7294 -75.7093  255 255 255
60.3913 41.0108 -29.4255  255 255 255
17.9528 73.3292 -88.2051  255 255 255
66.8353 16.3761 21.9118  255 255 255
33.426 71.4071 -93.4969  255 255 255
8.50501 69.6152 -85.4681  255 255 255
57.0171 23.3957 1.34989  255 255 255
65.5062 13.3657 21.9231  255 255 255
63.8743 33.7325 -22.9521  255 255 255
61.5695 36.8683 -31.0169  255 255 255
62.1167 35.3956 -28.774  255 255 255
63.4028 15.9756 14.202  255 255 255
19.2144 67.4354 -91.0106  255 255 255
59.7368 36.4619 -33.6586  255 255 255
84.2126 73.466 -123.466  255 255 255
84.2125 73.466 -123.466  255 255 255
61.1426 15.5952 8.95831  255 255 255
-17.7012 60.0903 -73.935  255 255 255
61.552 14.2657 10.3714  255 255 255
67.0728 25.7821 -22.7314  255 255 255
-71.8301 52.4755 -46.4937  255 255 255
57.8921 34.1535 -41.7793  255 255 255
-71.4798 51.4377 -46.0718  255 255 255
59.0199 11.1443 2.22019  255 255 255
57.9672 13.138 -3.24989  255 255 255
57.4381 12.6547 -4.45213  255 255 255
-45.4686 49.1926 -63.7391  255 255 255
59.1261 26.7991 -42.3386  255 255 255
65.9192 3.63203 14.4846  255 255 255
59.1558 11.033 -3.42814  255 255 255
14.7623 53.7764 -98.9476  255 255 255
-41.8801 48.063 -65.3437  255 255 255
58.2262 11.1449 -4.75322  255 255 255
-48.9641 46.9557 -61.9132  255 255 255
65.6879 3.7945 10.4641  255 255 255
58.5861 10.3435 -4.6312  255 255 255
-52.2535 46.071 -61.3725  255 255 255
62.7024 5.11331 4.57336  255 255 255
-71.9401 43.8309 -50.4704  255 255 255
-58.8229 44.7777 -58.3898  255 255 255
-4.50698 48.6223 -89.2641  255 255 255
60.3746 6.46752 -1.37865  255 255 255
-78.0797 43.5493 -49.1821  255 255 255
-73.9299 43.337 -51.0251  255 255 255
30.2701 45.7877 -97.9587  255 255 255
-85.5762 42.4065 -44.2083  255 255 255
-77.0139 42.9841 -48.8888  255 255 255
-76.3955 42.5802 -48.8205  255 255 255
66.2648 0.258124 11.1661  255 255 255
-73.5281 42.6862 -51.2593  255 255 255
-84.3345 38.8828 -47.1512  255 255 255
-26.9625 41.7827 -81.0075  255 255 255
-65.0609 38.6362 -58.1447  255 255 255
-70.4338 38.6043 -55.806  255 255 255
64.3212 -2.01948 2.63234  255 255 255
65.8548 -3.24641 5.61746  255 255 255
63.7036 -2.64053 2.65628  255 255 255
-18.0425 0.111999 26.0339  255 255 255
-7.79847 -5.15841 37.3337  255 255 255
66.8261 -7.87955 8.43611  255 255 255
-70.3716 34.4975 -58.5807  255 255 255
-9.87775 -5.50257 36.4577  255 255 255
-9.97509 29.8703 -76.9864  255 255 255
-6.88711 -7.23807 38.6778  255 255 255
-87.9489 32.592 -48.9147  255 255 255
-67.1023 33.2444 -61.6859  255 255 255
66.7916 -8.68467 2.85048  255 255 255
-71.6067 31.5122 -62.0209  255 255 255
-18.6245 24.7904 -69.2228  255 255 255
68.3741 -11.4916 4.74494  255 255 255
-82.1518 30.1565 -54.3142  255 255 255
-87.766 28.8981 -52.9622  255 255 255
67.0748 -13.8594 -0.252229  255 255 255
-27.6436 -0.372098 5.47912  255 255 255
69.3398 -16.7771 3.48327  255 255 255
-26.7539 -1.47873 7.28544  255 255 255
66.7265 -15.5356 -1.86737  255 255 255
-84.5462 24.3149 -57.6255  255 255 255
-29.4081 -2.72373 8.89806  255 255 255
-30.4609 -2.83958 9.43528  255 255 255
-18.1003 -12.9857 33.4398  255 255 255
-16.4904 -13.7768 33.9117  255 255 255
-22.4907 6.8435 -47.568  255 255 255
3.36047 -19.8813 38.9063  255 255 255
-16.584 -15.1842 34.4775  255 255 255
-7.45946 -18.6242 38.8878  255 255 255
-11.9869 -21.0279 39.0064  255 255 255
-19.3708 -20.4943 35.2566  255 255 255
-57.7026 -2.65328 -34.8839  255 255 255
-18.1743 -25.1078 38.0521  255 255 255
-19.5069 -25.3101 38.5334  255 255 255
-17.2477 -28.6326 40.0972  255 255 255
-4.6179 -32.2823 42.5834  255 255 255
-54.1174 -13.8353 -20.6137  255 255 255
-14.6509 -31.1326 39.094  255 255 255
-31.0597 -26.8461 21.7153  255 255 255
-31.5712 -26.885 21.404  255 255 255
-11.5511 -33.5354 39.1012  255 255 255
-13.604 -32.9754 37.8891  255 255 255
-25.6105 -30.7391 28.0829  255 255 255
-59.6567 -19.5556 -11.5001  255 255 255
-11.4095 -35.4191 37.1096  255 255 255
-48.644 -22.9148 -8.13188  255 255 255
-25.8108 -33.6842 25.9102  255 255 255
-21.6865 -35.6647 29.8053  255 255 255
-24.5292 -34.8978 27.7874  255 255 255
-54.4212 -26.3936 -4.69932  255 255 255
-51.0253 -27.2481 -2.93627  255 255 255
-63.034 -32.8136 5.33915  255 255 255
-53.3172 -36.0575 7.20567  255 255 255
-51.4501 -37.2321 10.3548  255 255 255
-49.5887 -41.5712 14.5421  255 255 255
57.8038 71.4427 -19.239  255 255 255
-74.19 78.1519 -24.7454  255 255 255
59.8004 107.046 -88.0512  255 255 255
82.0021 110.804 -99.4903  255 255 255
79.8899 110.039 -97.9892  255 255 255
1.32732 80.1805 -50.1208  255 255 255
74.26 101.454 -100.045  255 255 255
40.0684 93.3684 -87.2414  255 255 255
61.0352 30.9402 20.8175  255 255 255
5.19996 82.4654 -72.1291  255 255 255
64.5134 20.6362 28.3262  255 255 255
18.503 80.974 -82.7939  255 255 255
-56.1133 67.9171 -43.1278  255 255 255
-75.5255 64.612 -33.1361  255 255 255
12.9743 77.6798 -78.5693  255 255 255
23.6899 77.7881 -84.0426  255 255 255
69.2612 85.9766 -109.014  255 255 255
61.0457 25.0699 12.7352  255 255 255
-55.1356 65.3289 -45.9187  255 255 255
30.8655 77.6541 -91.5301  255 255 255
58.3452 23.0439 11.5007  255 255 255
29.1377 70.0483 -91.4933  255 255 255
28.1986 70.2 -92.5554  255 255 255
19.7654 68.6217 -87.5145  255 255 255
-67.8439 58.4545 -44.0269  255 255 255
-27.7846 61.3343 -65.3712  255 255 255
64.3673 11.6842 15.5475  255 255 255
-44.7034 55.5901 -59.6859  255 255 255
-26.7612 56.788 -68.9084  255 255 255
61.6603 12.3508 5.57552  255 255 255
56.2919 16.6652 -4.85429  255 255 255
66.6291 6.22478 13.4979  255 255 255
61.8056 9.49874 4.85994  255 255 255
60.3595 10.0079 3.16171  255 255 255
55.1921 14.4438 -8.34651  255 255 255
-65.4947 46.9619 -52.1332  255 255 255
19.3847 56.1498 -105.214  255 255 255
65.6555 4.17895 10.8409  255 255 255
-12.5094 49.0583 -83.3963  255 255 255
-0.522305 46.863 -93.7833  255 255 255
-69.8527 42.1547 -53.3414  255 255 255
-84.0563 39.3247 -46.4965  255 255 255
-84.5529 37.5132 -46.8307  255 255 255
-69.7162 37.0227 -57.7577  255 255 255
66.2687 -7.09612 5.70406  255 255 255
-11.2095 -6.80347 36.8365  255 255 255
-20.3751 1.03844 9.61876  255 255 255
-24.7241 2.58751 2.49201  255 255 255
-25.952 21.173 -64.2011  255 255 255
-63.1657 28.7477 -71.6032  255 255 255
-88.3479 26.4751 -54.3624  255 255 255
-19.5696 -8.99941 30.531  255 255 255
-38.9826 17.8572 -60.6084  255 255 255
-18.9807 11.4539 -50.7348  255 255 255
-29.673 -3.30184 9.36364  255 255 255
5.06387 -17.2284 39.1408  255 255 255
-18.2758 10.7846 -53.1944  255 255 255
13.6129 -20.6365 37.5748  255 255 255
-27.2726 6.6354 -46.1578  255 255 255
-10.1644 -17.9206 38.2288  255 255 255
65.3836 -21.5005 -9.02577  255 255 255
-48.5245 7.87385 -48.1965  255 255 255
-9.61306 -18.8209 37.6737  255 255 255
68.1684 -24.334 -5.18269  255 255 255
-22.5926 -19.8094 33.0362  255 255 255
-34.7726 -7.55127 -27.7786  255 255 255
-39.8878 -11.3574 -23.2602  255 255 255
-22.0259 -27.1576 35.0907  255 255 255
-29.2785 -25.7825 25.0971  255 255 255
-58.1113 -18.4349 -13.3032  255 255 255
-28.2801 -29.2098 28.923  255 255 255
-46.8122 -21.3516 -11.4285  255 255 255
-59.6817 -19.8284 -12.4279  255 255 255
-49.0114 -22.6889 -8.7776  255 255 255
-31.0364 -29.8669 20.7881  255 255 255
-29.9889 -30.2922 20.8746  255 255 255
-7.16411 -37.8948 40.1523  255 255 255
58.5318 40.1303 25.0126  255 255 255
58.8643 39.4599 23.1549  255 255 255
39.7274 90.9537 -88.3084  255 255 255
58.6877 31.3897 15.4983  255 255 255
-78.8047 64.9586 -31.7899  255 255 255
33.6739 82.3555 -89.5986  255 255 255
34.9292 82.3836 -93.2649  255 255 255
34.9295 82.3839 -93.2655  255 255 255
66.4777 19.4024 22.4979  255 255 255
30.5332 75.5989 -92.447  255 255 255
40.6901 73.6744 -102.099  255 255 255
84.3455 75.4376 -124.613  255 255 255
59.6271 18.6886 5.09117  255 255 255
56.25 21.2073 -1.96953  255 255 255
14.3124 64.2184 -88.8212  255 255 255
14.8964 63.6171 -91.132  255 255 255
58.061 17.9184 1.48919  255 255 255
58.923 16.9083 2.45416  255 255 255
43.625 65.6316 -107.694  255 255 255
64.9979 6.81899 15.2628  255 255 255
-54.5321 50.4149 -57.2126  255 255 255
12.7713 55.0643 -100.549  255 255 255
61.4908 8.22528 1.84021  255 255 255
-68.4414 46.9296 -53.5606  255 255 255
-67.9924 45.4925 -51.9707  255 255 255
63.0093 4.48082 3.6821  255 255 255
59.5166 7.69314 -3.87148  255 255 255
63.5838 18.531 -36.2798  255 255 255
-69.8849 42.749 -52.3969  255 255 255
-77.863 42.2921 -48.5092  255 255 255
-40.4575 39.5117 -73.2886  255 255 255
-13.8346 -2.6413 32.9558  255 255 255
-13.8346 -2.6413 32.9558  255 255 255
67.5494 -7.1472 6.83363  255 255 255
-10.8539 21.4673 -64.8165  255 255 255
-5.66583 -10.7974 39.6513  255 255 255
-29.2799 -1.17254 6.26995  255 255 255
-21.4316 8.02309 -49.0896  255 255 255
-29.2775 -12.7382 22.1471  255 255 255
-9.1963 -29.6427 43.6966  255 255 255
-50.9338 -20.1917 -12.3239  255 255 255
-55.3935 -21.3822 -10.8555  255 255 255
-28.4197 -34.2073 24.7614  255 255 255
-71.1378 -24.2866 -8.19953  255 255 255
-11.1514 95.4661 -52.0407  255 255 255
-11.1514 95.4661 -52.0407  255 255 255
56.6563 50.2453 -35.2724  255 255 255
51.6686 83.1148 -107.926  255 255 255
47.6812 81.1413 -104.321  255 255 255
19.3675 71.5775 -88.2769  255 255 255
41.9349 73.8998 -98.2897  255 255 255
-8.70868 60.6885 -78.8024  255 255 255
11.7879 62.2011 -88.5919  255 255 255
62.2264 14.3334 8.7418  255 255 255
-9.58234 55.8478 -83.9845  255 255 255
-34.3943 50.4983 -69.3579  255 255 255
57.0969 8.01448 -9.37906  255 255 255
-84.6932 38.4362 -47.3301  255 255 255
-67.6858 32.7053 -62.9164  255 255 255
-11.0265 20.5374 -65.1772  255 255 255
62.9126 -11.2128 -9.24148  255 255 255
67.6661 -15.9512 -1.56682  255 255 255
67.6662 -15.9512 -1.56696  255 255 255
-12.8626 -15.6114 36.692  255 255 255
66.6093 -22.1405 -6.38672  255 255 255
68.144 -23.5776 -5.36262  255 255 255
4.56045 -37.1994 38.6096  255 255 255
-61.6251 -25.1074 -6.75817  255 255 255
-60.5957 -26.468 -4.1822  255 255 255
-60.5957 -26.468 -4.18269  255 255 255
-52.2067 -28.4423 -1.70451  255 255 255
-38.1562 86.7104 -39.8926  255 255 255
10.5366 67.1673 -94.0016  255 255 255
-55.6253 43.697 -61.8592  255 255 255
60.775 -0.779215 -1.07565  255 255 255
6.40993 -17.3321 38.706  255 255 255
-32.9638 -19.002 9.6291  255 255 255
-23.9271 -35.5996 27.9801  255 255 255
-53.7403 -30.7769 1.09649  255 255 255
62.224 15.5964 7.2863  255 255 255
5.34883 61.006 -87.0303  255 255 255
-11.6387 -8.96758 37.6944  255 255 255
-3.58295 -12.0155 39.9896  255 255 255
-28.4348 -18.0532 29.684  255 255 255
-24.2804 -21.7731 34.1668  255 255 255
14.1822 -32.0898 36.9498  255 255 255
-0.413478 -40.5959 36.4035  255 255 255
-14.5633 -37.6781 34.8157  255 255 255
55.912 36.4777 9.68247  255 255 255
35.1591 72.753 -92.657  255 255 255
-51.2626 48.0724 -61.0728  255 255 255
-14.1957 25.3781 -70.9498  255 255 255
68.1482 -15.5533 1.22936  255 255 255
-47.0312 71.0266 -46.2728  255 255 255
74.2686 63.6014 -75.8386  255 255 255
28.4683 88.2654 -83.0557  255 255 255
81.1622 98.9875 -112.821  255 255 255
63.7605 5.44005 16.9347  255 255 255
24.1153 49.1183 -99.5949  255 255 255
37.9733 93.6738 -84.927  255 255 255
85.7937 98.7281 -110.478  255 255 255
20.2341 84.3483 -80.2044  255 255 255
19.8803 80.6797 -82.7203  255 255 255
52.4607 86.5527 -100.259  255 255 255
57.0601 84.4928 -103.146  255 255 255
1.10561 75.0758 -74.3881  255 255 255
56.8377 83.1305 -103.501  255 255 255
63.4342 16.2861 14.7439  255 255 255
51.5477 79.6813 -103.244  255 255 255
61.8901 74.4098 -113.946  255 255 255
58.273 35.3401 -40.8259  255 255 255
58.2039 34.9118 -40.0614  255 255 255
-12.6209 43.2538 -38.0885  255 255 255
1.86557 60.5598 -79.6458  255 255 255
71.1881 -2.39451 19.6612  255 255 255
71.1215 -2.95921 19.1306  255 255 255
71.5155 -3.22024 19.4814  255 255 255
70.7812 -4.58104 16.8302  255 255 255
73.4002 -7.14542 20.5632  255 255 255
57.898 5.71436 -8.36249  255 255 255
57.5266 5.66312 -9.60746  255 255 255
60.1321 1.06827 -6.13125  255 255 255
70.7801 -8.81111 13.2525  255 255 255
59.0898 1.19623 -8.75216  255 255 255
71.0662 -13.2517 11.0418  255 255 255
71.1591 -13.8214 10.5604  255 255 255
71.1325 -15.655 9.5519  255 255 255
-9.48847 -12.2697 38.5996  255 255 255
-9.48847 -12.2697 38.5996  255 255 255
70.9604 -17.1871 7.80522  255 255 255
70.9917 -17.5244 8.04627  255 255 255
70.2739 -17.9381 5.84715  255 255 255
70.9416 -20.0736 5.57585  255 255 255
-11.7028 12.9382 -54.1578  255 255 255
-15.497 9.58482 -50.6073  255 255 255
74.9876 -30.476 6.93319  255 255 255
61.5255 -31.2224 1.08542  255 255 255
-39.7383 4.98856 -44.3704  255 255 255
59.7673 -46.8847 20.2744  255 255 255
-12.701 -34.619 37.3313  255 255 255
52.3483 -54.2787 30.0873  255 255 255
-34.5535 -55.3305 32.8261  255 255 255
56.2397 34.3815 8.97833  255 255 255
35.0773 82.9237 -90.9506  255 255 255
83.5175 86.917 -117.508  255 255 255
87.1939 71.7269 -125.782  255 255 255
63.7625 7.82512 9.08402  255 255 255
60.1634 29.5212 -37.9307  255 255 255
57.0613 14.5156 -6.27716  255 255 255
55.0854 10.2018 -13.0212  255 255 255
75.6704 -9.55041 23.6129  255 255 255
57.9563 6.83554 -7.68777  255 255 255
41.7315 46.0688 -96.0141  255 255 255
41.8506 46.1581 -96.2545  255 255 255
68.7866 -9.77942 8.92209  255 255 255
69.8127 -11.9182 9.61912  255 255 255
73.0906 -16.9408 12.8176  255 255 255
-32.7921 38.5063 -79.1996  255 255 255
71.305 -16.6148 8.65306  255 255 255
