ply
format ascii 1.0
element vertex 1243
property float x
property float y
property float z
property uchar red
property uchar green
property uchar blue
end_header
-29.4761 54.0036 -60.2563  255 255 255
-37.7833 54.1423 -56.5568  255 255 255
-38.0753 54.8032 -58.5733  255 255 255
-48.7548 51.0502 -45.9115  255 255 255
-0.845341 66.427 -104.294  255 255 255
39.8668 75.8261 -148.757  255 255 255
-50.0342 49.2998 -48.2066  255 255 255
19.2943 61.8894 -109.615  255 255 255
12.3883 59.734 -108.214  255 255 255
48.7077 24.0454 -22.5777  255 255 255
59.8492 25.7993 -34.4641  255 255 255
31.3687 55.2794 -110.852  255 255 255
-44.99 46.8807 -58.7384  255 255 255
59.2403 25.2286 -34.9771  255 255 255
-54.9431 44.1114 -50.0616  255 255 255
-58.1795 44.8139 -51.4238  255 255 255
-7.05459 50.3001 -91.5099  255 255 255
-57.2463 43.5868 -48.735  255 255 255
47.5454 9.26119 15.133  255 255 255
-7.48803 49.6476 -92.7909  255 255 255
52.8978 18.1879 -20.0557  255 255 255
-37.3281 42.7964 -64.233  255 255 255
-54.4669 38.0777 -45.4748  255 255 255
-6.87454 45.9455 -98.8873  255 255 255
-0.544928 42.7819 -93.0479  255 255 255
-50.7473 37.4354 -52.5313  255 255 255
-7.58366 40.3052 -86.9316  255 255 255
-7.547 40.2683 -86.9703  255 255 255
-29.4508 44.1641 -89.0376  255 255 255
-24.2532 45.294 -96.8342  255 255 255
4.54816 36.4914 -83.1271  255 255 255
-56.4997 39.1816 -61.3776  255 255 255
-2.45712 37.7836 -85.1069  255 255 255
49.654 26.2483 -70.9705  255 255 255
31.6325 28.8678 -73.8478  255 255 255
53.3837 1.44727 18.8634  255 255 255
37.6691 27.5308 -72.326  255 255 255
35.6245 25.6034 -67.8714  255 255 255
-68.936 42.5375 -78.3357  255 255 255
-68.8242 42.5901 -78.3064  255 255 255
-23.6379 37.9327 -88.3321  255 255 255
-43.6829 35.041 -67.8502  255 255 255
-17.0029 36.1816 -86.4346  255 255 255
-57.968 30.7292 -43.4641  255 255 255
-15.3878 33.1734 -77.8624  255 255 255
46.1591 20.9471 -63.4404  255 255 255
46.1985 20.9399 -63.4007  255 255 255
60.3438 1.95173 3.97901  255 255 255
-60.0169 33.04 -53.7633  255 255 255
-61.1619 35.89 -63.1256  255 255 255
55.752 -2.80707 25.8911  255 255 255
-26.9012 36.5233 -89.3793  255 255 255
-50.7338 38.2318 -85.0359  255 255 255
54.2443 -1.48871 17.9867  255 255 255
-32.9338 36.8499 -91.9004  255 255 255
-54.3736 38.0591 -85.6352  255 255 255
-23.9715 30.8854 -75.475  255 255 255
58.9511 -2.1888 15.6655  255 255 255
-59.459 37.9102 -83.3735  255 255 255
-43.4854 37.2407 -90.9473  255 255 255
49.3313 3.71491 -4.71125  255 255 255
-66.6967 36.5259 -81.2545  255 255 255
-55.3413 35.9317 -85.8179  255 255 255
-54.4066 34.5618 -77.731  255 255 255
-60.427 34.2026 -73.8229  255 255 255
52.1606 12.304 -50.9838  255 255 255
54.7735 -3.29792 16.9998  255 255 255
53.4376 -3.6987 19.1695  255 255 255
-50.1644 33.7928 -81.3457  255 255 255
-56.0467 33.1495 -78.0686  255 255 255
-62.3719 31.975 -70.2211  255 255 255
3.09992 21.5547 -67.1779  255 255 255
-36.843 30.9016 -82.4561  255 255 255
-47.0714 28.8478 -69.975  255 255 255
-53.9652 33.5139 -85.8591  255 255 255
-68.6885 28.6373 -57.1865  255 255 255
-13.9764 21.4968 -62.5756  255 255 255
-34.5669 24.9205 -65.5244  255 255 255
-54.2469 32.4947 -87.3723  255 255 255
53.0551 7.4097 -44.244  255 255 255
-63.7907 31.6287 -75.8779  255 255 255
-34.2822 24.2504 -64.9145  255 255 255
51.9719 7.43477 -43.7612  255 255 255
-58.5313 31.9564 -85.7978  255 255 255
-58.8166 31.9414 -85.9514  255 255 255
-57.2261 31.0168 -86.0071  255 255 255
-36.5241 24.6065 -68.3123  255 255 255
-64.835 31.5579 -84.3136  255 255 255
-5.43822 -0.238037 28.8042  255 255 255
-41.5317 25.9971 -73.4051  255 255 255
-60.5205 24.599 -55.337  255 255 255
-62.9283 30.6624 -86.5419  255 255 255
-38.8424 22.9864 -69.0687  255 255 255
47.2968 3.92693 -39.2746  255 255 255
-22.1881 19.8656 -65.1431  255 255 255
-82.158 27.9081 -60.9145  255 255 255
-82.2124 27.8701 -60.7944  255 255 255
-70.0358 20.7898 -39.6453  255 255 255
-42.102 22.4615 -69.5918  255 255 255
-66.5542 28.728 -83.4024  255 255 255
-31.9849 18.0429 -58.3614  255 255 255
46.8262 2.31546 -37.242  255 255 255
-7.87921 -2.39557 31.2565  255 255 255
55.1278 -10.6804 23.8302  255 255 255
-69.2882 21.6185 -48.5015  255 255 255
49.7814 -4.54963 -4.19334  255 255 255
59.3065 0.457088 -42.9631  255 255 255
54.6893 -11.1192 22.1665  255 255 255
-46.7917 20.5513 -66.5879  255 255 255
-61.836 22.6144 -70.6592  255 255 255
45.9495 -1.00126 -31.9355  255 255 255
-78.0395 23.1933 -66.9071  255 255 255
12.789 -5.37007 20.8393  255 255 255
11.8487 -7.84842 34.0514  255 255 255
-7.00941 -5.70581 35.9681  255 255 255
-55.4286 15.3735 -51.0251  255 255 255
-68.7224 21.8624 -76.3896  255 255 255
-68.7664 21.8324 -76.3654  255 255 255
18.6917 -6.34567 14.3587  255 255 255
12.7123 -8.78374 33.3837  255 255 255
-68.0446 20.2653 -75.0215  255 255 255
-38.068 10.1342 -46.1194  255 255 255
57.6833 -16.3767 29.0743  255 255 255
-3.48914 -7.84565 38.582  255 255 255
4.70449 -7.56094 29.0618  255 255 255
62.2127 -12.3814 -0.163241  255 255 255
1.89116 -9.19261 40.2844  255 255 255
-34.9663 8.68237 -44.9003  255 255 255
20.0527 -8.19475 12.9035  255 255 255
61.9711 -6.92681 -47.376  255 255 255
46.083 -7.71301 -24.0662  255 255 255
2.37675 -10.2982 40.4423  255 255 255
46.5397 -8.95155 -22.4719  255 255 255
-2.248 -9.99762 40.2001  255 255 255
55.5677 -16.6736 15.0616  255 255 255
67.1869 -16.7867 4.07627  255 255 255
-29.1213 4.12372 -39.3068  255 255 255
56.9253 -13.1201 -10.7481  255 255 255
-91.4314 19.7558 -85.0983  255 255 255
57.4108 -13.4109 -11.8155  255 255 255
52.8328 -13.8765 -5.73415  255 255 255
52.7956 -13.8561 -5.6626  255 255 255
-44.3973 5.41282 -39.1774  255 255 255
-12.5505 -8.52247 31.0903  255 255 255
47.5619 -12.0379 -18.821  255 255 255
57.9383 -17.7623 12.7638  255 255 255
54.8678 -14.0573 -16.8262  255 255 255
56.2905 -17.786 5.4461  255 255 255
58.9139 -21.3736 25.9621  255 255 255
-36.3799 0.454186 -35.6463  255 255 255
-36.2279 0.340407 -33.4368  255 255 255
10.0762 -14.8527 38.5939  255 255 255
55.8809 -18.5058 -9.20504  255 255 255
-37.4207 -2.60086 -29.3395  255 255 255
57.0172 -21.6414 2.59113  255 255 255
-2.48166 -14.6472 38.0787  255 255 255
57.2499 -20.9799 -11.2116  255 255 255
22.9567 -18.5017 28.3111  255 255 255
-6.57415 -14.7476 40.3319  255 255 255
-52.1545 -2.27735 -25.7194  255 255 255
-30.3501 -6.17656 -25.1952  255 255 255
-16.5517 -12.4321 28.6512  255 255 255
-15.8199 -12.7772 29.9292  255 255 255
-43.0959 -4.82707 -24.9629  255 255 255
-38.9949 -5.64701 -27.819  255 255 255
-44.3396 -4.9634 -24.6924  255 255 255
-69.2423 0.37345 -47.1323  255 255 255
54.6691 -23.3355 -9.46171  255 255 255
50.5091 -23.4794 -4.8105  255 255 255
50.3733 -23.3903 -4.77204  255 255 255
-15.9836 -14.5259 30.4772  255 255 255
-2.9494 -17.0246 37.7578  255 255 255
2.20735 -18.2942 36.3874  255 255 255
-16.0752 -15.1955 31.6455  255 255 255
-67.5919 -4.03825 -16.08  255 255 255
-67.5158 -3.98981 -16.0572  255 255 255
-14.0354 -16.6812 33.7099  255 255 255
54.3617 -27.1219 -1.56558  255 255 255
-50.1444 -9.91951 -16.6665  255 255 255
-50.0557 -9.91746 -15.9899  255 255 255
-45.8107 -11.008 -15.3652  255 255 255
-37.3106 -12.4232 -16.7715  255 255 255
-8.12785 -19.2041 38.9325  255 255 255
59.9153 -31.1368 11.3588  255 255 255
61.8199 -31.7596 23.1313  255 255 255
-41.6158 -12.3944 -18.7372  255 255 255
-48.9953 -11.0882 -15.0865  255 255 255
-44.2749 -12.056 -14.3209  255 255 255
-18.7173 -17.4775 30.5369  255 255 255
16.1454 -23.6083 35.7703  255 255 255
-43.6943 -12.2955 -18.0372  255 255 255
-12.2583 -19.1854 36.257  255 255 255
-20.6234 -18.0003 30.1324  255 255 255
-14.4784 -19.5728 36.7726  255 255 255
-16.9862 -19.1947 33.7003  255 255 255
-35.2234 -15.6275 -13.9049  255 255 255
-34.9004 -16.3114 -13.3481  255 255 255
-16.7813 -19.8111 33.8234  255 255 255
-6.28098 -21.4754 36.1809  255 255 255
50.6473 -31.7739 4.75931  255 255 255
52.7978 -32.1734 6.55256  255 255 255
-36.5736 -17.0507 -9.99027  255 255 255
-58.0745 -13.5516 -9.14058  255 255 255
-38.8363 -17.0258 -12.7537  255 255 255
-35.5006 -17.8107 -8.74625  255 255 255
-60.2115 -13.8246 -18.107  255 255 255
-6.4451 -22.7542 40.686  255 255 255
-18.5491 -20.6817 32.4833  255 255 255
-56.9649 -14.5585 -8.6591  255 255 255
-18.9561 -20.8423 33.7383  255 255 255
-39.8955 -18.1821 -11.2172  255 255 255
-19.5303 -20.7941 31.5923  255 255 255
-4.78535 -23.5598 38.7128  255 255 255
-39.7705 -19.097 -9.88251  255 255 255
-39.3221 -19.4788 -8.94944  255 255 255
-50.3697 -17.9547 -4.02547  255 255 255
-50.2862 -17.8119 -4.052  255 255 255
-50.0699 -18.1771 -3.76474  255 255 255
-19.1985 -22.5371 35.4811  255 255 255
4.61019 -26.406 40.4593  255 255 255
-42.7908 -19.9734 -8.98262  255 255 255
-47.8584 -19.3414 -8.94218  255 255 255
-14.4838 -23.6565 33.8035  255 255 255
-41.4587 -20.6495 -7.59182  255 255 255
-57.2318 -18.3131 -10.9512  255 255 255
-54.9224 -18.9875 -9.64765  255 255 255
-41.0882 -21.1288 -6.95187  255 255 255
22.4367 -32.48 24.4131  255 255 255
-58.4999 -19.9729 1.29404  255 255 255
46.3392 -38.7004 14.1339  255 255 255
53.2364 -39.5098 20.9811  255 255 255
-56.9529 -21.4377 -12.1034  255 255 255
-7.34877 -27.483 38.5642  255 255 255
-48.5369 -22.9702 1.85481  255 255 255
36.8474 -37.9406 15.0626  255 255 255
-47.2077 -23.3053 2.54173  255 255 255
-47.9542 -23.3854 3.27689  255 255 255
-48.8363 -23.9056 -5.19026  255 255 255
-16.1047 -27.0512 36.89  255 255 255
-12.7118 -27.9923 42.6091  255 255 255
-39.3936 -26.943 0.533263  255 255 255
42.3238 -41.5728 18.7843  255 255 255
42.2807 -41.4228 18.8222  255 255 255
34.1847 -40.2512 18.6967  255 255 255
-36.9518 -29.0051 7.63953  255 255 255
-56.6316 -26.3015 -0.173261  255 255 255
-19.951 -30.0451 27.4653  255 255 255
16.7005 -37.0371 30.2253  255 255 255
-55.1931 -26.6413 0.105378  255 255 255
0.0446016 -33.2703 40.317  255 255 255
-0.174523 -32.941 40.9503  255 255 255
-55.9826 -27.0476 0.4688  255 255 255
-55.0424 -27.0022 2.09484  255 255 255
-51.9239 -26.8405 8.69018  255 255 255
41.1544 -43.6805 20.971  255 255 255
31.7294 -42.3612 21.266  255 255 255
-42.2212 -30.1182 5.29092  255 255 255
-20.5595 -32.1051 27.9471  255 255 255
-47.4663 -29.3331 11.5324  255 255 255
-53.2345 -29.2634 14.9411  255 255 255
-56.1664 -30.1739 6.23862  255 255 255
-52.0911 -29.5417 15.5559  255 255 255
-7.32201 -36.8608 30.1952  255 255 255
26.8397 -45.3765 25.7934  255 255 255
-47.4184 -32.3439 16.8197  255 255 255
-43.4926 -34.0547 18.0172  255 255 255
-45.3162 -34.0903 18.9019  255 255 255
21.2622 -46.4613 29.7186  255 255 255
21.3562 -46.6655 29.2488  255 255 255
-44.0868 -35.0716 20.033  255 255 255
19.8664 -47.1105 30.5541  255 255 255
-25.8143 -40.0223 25.3064  255 255 255
-22.9423 -40.6592 27.5612  255 255 255
-37.8452 -39.7733 18.0741  255 255 255
-35.9867 -40.0341 19.9053  255 255 255
-34.49 -39.905 24.2317  255 255 255
-50.9864 -36.4827 27.6083  255 255 255
-40.0363 -40.4565 19.072  255 255 255
-8.63908 -45.8165 33.7082  255 255 255
-37.4402 -41.4133 27.4299  255 255 255
-37.0045 -41.6154 27.1729  255 255 255
-27.4779 -44.2439 28.8026  255 255 255
-40.0688 -41.8508 29.6783  255 255 255
-47.6936 -40.6316 32.9532  255 255 255
-32.7751 -44.6289 31.0278  255 255 255
21.2663 -54.4975 38.4899  255 255 255
-34.4991 -44.5301 31.6673  255 255 255
-41.9816 -43.0589 33.6374  255 255 255
7.83019 -52.6628 38.331  255 255 255
29.3787 -57.6564 39.536  255 255 255
-33.5198 -45.8046 33.8066  255 255 255
-42.6153 -43.656 33.9686  255 255 255
-37.1898 -45.1288 34.2083  255 255 255
15.0405 -55.0566 41.2953  255 255 255
-23.6751 -49.6578 31.5745  255 255 255
4.56019 -53.0845 39.9139  255 255 255
-33.0307 -46.7143 35.3916  255 255 255
-33.0154 -46.6246 35.3425  255 255 255
-13.6147 -50.5511 36.8953  255 255 255
-24.8728 -48.3524 36.412  255 255 255
-9.16829 -51.6272 37.5947  255 255 255
-11.0708 -51.2202 37.5853  255 255 255
0.6522 -53.2706 40.2318  255 255 255
2.04578 -53.714 40.4259  255 255 255
-11.5926 -51.4192 38.0736  255 255 255
13.5685 -55.8373 42.4826  255 255 255
6.8157 -54.7711 42.0554  255 255 255
-40.3485 -45.5971 37.432  255 255 255
7.509 -54.9328 42.2342  255 255 255
9.28174 -55.4671 41.991  255 255 255
14.3648 -57.5376 42.1206  255 255 255
0.606177 -54.3292 42.0529  255 255 255
0.658254 -54.2334 41.9932  255 255 255
-29.3013 -49.3962 38.1081  255 255 255
14.8075 -57.0044 45.0065  255 255 255
15.8988 -57.205 45.2004  255 255 255
19.5833 -59.464 45.0164  255 255 255
7.90261 -57.2165 45.1664  255 255 255
-12.3965 -53.9033 43.1631  255 255 255
-12.4785 -53.8834 43.1939  255 255 255
1.45379 -56.5048 45.387  255 255 255
-9.16153 -54.6736 43.8563  255 255 255
-11.8772 -54.4746 44.221  255 255 255
0.891992 -58.4259 44.0121  255 255 255
-25.8068 -53.3078 44.9551  255 255 255
-25.367 -53.7324 45.6408  255 255 255
-20.2202 -54.788 46.4047  255 255 255
-23.6787 -54.195 46.6399  255 255 255
-23.3459 -54.9815 47.4022  255 255 255
5.46934 75.3867 -102.006  255 255 255
85.5734 92.7952 -164.909  255 255 255
35.7927 72.5991 -117.548  255 255 255
36.0064 66.2636 -116.761  255 255 255
-0.210288 66.0931 -106.271  255 255 255
50.711 25.4882 -15.3583  255 255 255
51.443 26.18 -17.0183  255 255 255
-22.2378 54.4031 -89.2052  255 255 255
-1.61158 53.7822 -100.241  255 255 255
-52.2747 40.1909 -43.3858  255 255 255
-51.6967 39.7686 -45.291  255 255 255
52.69 5.07128 23.6795  255 255 255
0.33194 48.2336 -100.083  255 255 255
-11.4884 48.474 -96.4825  255 255 255
58.5871 20.5893 -35.9848  255 255 255
-63.8739 48.7266 -77.1311  255 255 255
2.67938 43.826 -93.6542  255 255 255
-49.5878 41.9341 -66.4385  255 255 255
-8.67906 47.4417 -104.818  255 255 255
-54.4064 36.2727 -46.8647  255 255 255
42.6214 9.38569 1.81476  255 255 255
-50.5072 36.7196 -52.7343  255 255 255
-67.61 36.9677 -45.4977  255 255 255
-6.85205 39.5164 -87.004  255 255 255
0.315632 38.5083 -84.9968  255 255 255
-86.015 42.3343 -55.2164  255 255 255
51.9647 20.2795 -49.1915  255 255 255
-51.1088 34.6819 -53.5735  255 255 255
-7.17449 37.3165 -84.8776  255 255 255
-56.8526 32.8527 -47.1288  255 255 255
17.824 27.7841 -71.1224  255 255 255
16.5631 27.2827 -65.5703  255 255 255
-34.4316 39.6785 -90.065  255 255 255
-60.6188 30.3955 -42.7613  255 255 255
63.1271 0.30107 7.80772  255 255 255
-39.7608 33.7762 -70.9601  255 255 255
-17.6782 32.3416 -78.886  255 255 255
-54.4707 36.0688 -75.0561  255 255 255
-60.8719 33.2301 -67.7223  255 255 255
47.3993 4.09554 -8.52897  255 255 255
-18.6402 26.3098 -67.555  255 255 255
-53.2205 35.0234 -85.5193  255 255 255
42.5003 14.7261 -55.7173  255 255 255
35.9908 14.7824 -55.3967  255 255 255
-53.7132 34.9776 -86.4978  255 255 255
44.9569 13.1087 -54.0435  255 255 255
55.21 9.52739 -45.2586  255 255 255
-59.7491 34.5555 -84.7972  255 255 255
55.6243 8.81774 -44.5435  255 255 255
-67.3267 25.7158 -42.1039  255 255 255
-35.9468 26.2472 -68.4195  255 255 255
-35.9462 26.2328 -67.6248  255 255 255
-34.4551 26.1772 -69.5256  255 255 255
-0.709783 19.7291 -60.3548  255 255 255
37.7399 10.4257 -47.7364  255 255 255
37.8073 10.5244 -47.8542  255 255 255
-57.1945 31.4544 -80.4672  255 255 255
-65.2889 31.0868 -75.9172  255 255 255
-66.1723 30.6468 -75.0673  255 255 255
-62.0253 29.7557 -78.1727  255 255 255
-62.1738 30.0261 -78.4418  255 255 255
-62.8784 30.2435 -87.543  255 255 255
-62.8602 28.7944 -79.9083  255 255 255
-70.6218 19.0021 -34.135  255 255 255
-72.7378 27.795 -87.8812  255 255 255
-68.5911 19.9094 -48.4852  255 255 255
46.2837 -1.16863 -31.4469  255 255 255
-31.4423 13.336 -53.1892  255 255 255
-69.5821 22.0916 -73.0028  255 255 255
-22.5202 10.1155 -49.6052  255 255 255
-33.3696 10.1092 -46.97  255 255 255
52.7046 -11.0206 -1.14632  255 255 255
-47.4101 12.5777 -56.2941  255 255 255
-47.3659 12.5586 -56.3402  255 255 255
23.8477 -9.06347 16.8388  255 255 255
-24.0582 7.22738 -45.0355  255 255 255
-49.8423 11.2486 -45.9962  255 255 255
-49.8519 10.6713 -44.2328  255 255 255
-69.4939 16.9748 -70.7434  255 255 255
59.7692 -5.97823 -50.5447  255 255 255
9.17549 -10.8411 37.6843  255 255 255
-35.3497 6.04008 -41.4001  255 255 255
-34.6685 5.60748 -42.0106  255 255 255
-77.1549 16.5324 -74.2375  255 255 255
-11.0123 -8.24979 34.4622  255 255 255
-56.2244 10.0185 -55.5446  255 255 255
-33.7219 4.54775 -40.2376  255 255 255
-15.0435 -6.68521 24.6157  255 255 255
-53.9404 5.53303 -36.9852  255 255 255
-42.2588 3.73768 -42.1415  255 255 255
45.5463 -13.2099 -16.7923  255 255 255
-44.0324 3.00552 -35.6101  255 255 255
53.4576 -14.7946 -15.6478  255 255 255
-55.3241 4.44281 -34.2438  255 255 255
52.7158 -14.6009 -18.8794  255 255 255
-40.714 1.46292 -35.3898  255 255 255
-32.8223 -0.26891 -33.4815  255 255 255
13.821 -14.1876 28.6779  255 255 255
-39.7847 -0.308279 -30.9445  255 255 255
22.6455 -16.1386 26.2311  255 255 255
-37.23 -1.07908 -31.767  255 255 255
53.3033 -18.7493 -11.223  255 255 255
55.1468 -19.844 -8.16639  255 255 255
-88.7902 8.05146 -68.2858  255 255 255
58.4816 -21.0015 -12.2385  255 255 255
55.6977 -22.0359 -8.12419  255 255 255
-61.4476 -1.85782 -25.7142  255 255 255
56.3829 -22.9507 -7.21571  255 255 255
60.857 -26.7841 26.9681  255 255 255
-18.8937 -13.0101 27.0018  255 255 255
-33.804 -9.26033 -22.7694  255 255 255
4.3397 -18.6765 36.2033  255 255 255
-22.0062 -13.8226 25.0552  255 255 255
-38.131 -8.96121 -20.4039  255 255 255
-41.8481 -8.72826 -19.6219  255 255 255
-50.8473 -7.71018 -18.8214  255 255 255
-20.5484 -15.0991 26.3823  255 255 255
47.9291 -26.5583 -3.61248  255 255 255
-33.4812 -12.5107 -16.8887  255 255 255
52.9253 -27.878 -1.52632  255 255 255
-49.0374 -10.1394 -15.245  255 255 255
17.3216 -23.2964 35.2157  255 255 255
-19.6894 -17.6771 30.1262  255 255 255
49.5268 -29.5111 7.14372  255 255 255
-19.8808 -18.0633 30.0058  255 255 255
61.7237 -33.0205 20.9083  255 255 255
-35.0672 -15.2454 -12.1773  255 255 255
-45.2916 -14.031 -10.9383  255 255 255
-20.1747 -18.9453 31.0665  255 255 255
-38.8302 -15.8386 -11.0845  255 255 255
42.9322 -30.0666 4.61421  255 255 255
-7.91751 -21.5008 39.5371  255 255 255
-17.9301 -20.7124 33.7621  255 255 255
-17.0111 -21.1113 34.2849  255 255 255
-18.401 -21.0172 33.0033  255 255 255
-45.7804 -17.4116 -11.8156  255 255 255
-19.1561 -21.4365 34.6514  255 255 255
51.0779 -35.7808 12.807  255 255 255
-44.1293 -18.0695 -6.50378  255 255 255
-17.6654 -22.1844 34.376  255 255 255
-43.2607 -18.9761 -10.2253  255 255 255
-20.25 -22.4887 34.5685  255 255 255
9.649 -27.7869 41.2911  255 255 255
-13.6418 -23.6654 37.5364  255 255 255
-12.6754 -24.0948 37.5629  255 255 255
-38.2945 -21.0968 -7.06705  255 255 255
-45.9831 -20.0861 -8.49199  255 255 255
-46.1212 -19.9021 -10.1664  255 255 255
-9.16749 -25.1678 39.6506  255 255 255
-11.2684 -25.2025 39.1358  255 255 255
-50.2097 -21.0251 -6.74887  255 255 255
-42.3439 -22.2868 -0.24579  255 255 255
-46.6667 -22.8484 -6.20137  255 255 255
-45.1769 -23.1878 -2.29818  255 255 255
-45.0934 -23.276 2.07101  255 255 255
-47.2992 -24.4391 -2.07245  255 255 255
-9.65644 -27.9583 37.6602  255 255 255
-8.21108 -28.6835 37.4539  255 255 255
-3.07367 -30.2411 45.2906  255 255 255
41.2633 -43.8492 21.4177  255 255 255
38.5357 -44.731 22.6908  255 255 255
-17.3193 -33.5823 27.2681  255 255 255
-44.2289 -31.5069 13.1045  255 255 255
-51.3782 -30.4118 16.5709  255 255 255
-54.3663 -31.8721 7.50459  255 255 255
-39.6435 -34.921 11.4325  255 255 255
27.2051 -45.7882 27.3342  255 255 255
22.6056 -45.692 28.5048  255 255 255
-67.0798 -33.4113 8.47988  255 255 255
-44.6777 -35.3239 21.2769  255 255 255
-45.7945 -35.8495 21.8297  255 255 255
-42.5016 -38.3714 16.1456  255 255 255
-40.7431 -39.3621 17.2409  255 255 255
-41.3239 -39.6163 18.1511  255 255 255
-36.5605 -40.433 19.7911  255 255 255
-40.299 -40.5138 19.6354  255 255 255
-40.2676 -40.8405 19.0515  255 255 255
-8.62701 -45.098 32.1981  255 255 255
-1.84958 -45.9221 34.8879  255 255 255
-10.4664 -44.432 33.1223  255 255 255
-27.8935 -43.9547 28.7228  255 255 255
33.7459 -56.266 36.0802  255 255 255
-28.0819 -44.8546 30.1364  255 255 255
-41.9891 -42.1677 30.9824  255 255 255
8.18284 -51.7618 36.6289  255 255 255
-46.372 -41.0563 32.6527  255 255 255
-23.795 -46.3253 31.6409  255 255 255
-38.6325 -43.1896 31.2741  255 255 255
-25.8486 -45.9643 31.3824  255 255 255
-26.5414 -46.22 32.7328  255 255 255
7.04267 -52.3488 37.4656  255 255 255
7.35634 -52.5553 38.8122  255 255 255
10.6627 -54.3196 37.8199  255 255 255
-23.4546 -47.2356 34.4174  255 255 255
-33.5001 -46.1566 34.1671  255 255 255
7.01634 -53.4385 40.0366  255 255 255
17.0041 -55.0801 41.9642  255 255 255
-11.9464 -50.631 37.1549  255 255 255
-35.482 -46.2718 35.2715  255 255 255
-12.5816 -50.8072 37.2184  255 255 255
-12.1878 -50.8789 37.177  255 255 255
-11.7095 -51.0785 37.1489  255 255 255
-11.7648 -51.1398 37.0892  255 255 255
1.53422 -53.7001 40.6251  255 255 255
1.79969 -53.9699 40.9703  255 255 255
9.63936 -55.7034 42.7384  255 255 255
-50.1148 -43.2999 40.9249  255 255 255
-43.6481 -45.4049 39.8677  255 255 255
-12.905 -53.9828 37.2657  255 255 255
3.7358 -55.9082 43.499  255 255 255
1.91556 -57.2579 41.5827  255 255 255
-42.432 -46.7458 41.9823  255 255 255
7.46259 -57.0658 45.4098  255 255 255
9.30101 -57.0662 45.9369  255 255 255
4.64598 -58.0217 42.8723  255 255 255
-3.28581 -57.042 41.3635  255 255 255
1.11047 -56.6144 45.6542  255 255 255
-4.2787 -57.3584 41.7429  255 255 255
8.64204 -59.5063 44.8892  255 255 255
20.5881 -62.5695 48.6192  255 255 255
-24.8266 -54.2404 46.1703  255 255 255
-21.198 -54.9162 46.5578  255 255 255
-19.5448 -58.3806 43.189  255 255 255
65.9157 75.6307 -129.363  255 255 255
19.702 60.2984 -112.605  255 255 255
-25.4222 55.6683 -84.9411  255 255 255
19.4404 58.7175 -111.648  255 255 255
53.7829 26.0916 -29.2547  255 255 255
58.3622 27.2324 -34.5974  255 255 255
-12.3169 51.4382 -81.003  255 255 255
-51.4075 39.3985 -46.8495  255 255 255
52.5048 4.84261 22.8865  255 255 255
-33.3496 41.1928 -78.5632  255 255 255
54.9836 17.1348 -41.4289  255 255 255
-35.6535 40.8731 -88.6539  255 255 255
-35.5685 40.8887 -88.688  255 255 255
-8.48037 34.9585 -81.394  255 255 255
-50.5538 34.2381 -56.7883  255 255 255
46.8361 23.1756 -66.4637  255 255 255
-9.72663 33.668 -78.2657  255 255 255
24.7069 27.1014 -70.6154  255 255 255
-64.6656 36.3295 -57.8243  255 255 255
-53.6872 37.1792 -70.3749  255 255 255
4.54446 29.4829 -71.7333  255 255 255
22.8693 24.8266 -67.1004  255 255 255
-23.4643 35.9071 -83.9274  255 255 255
-54.7048 37.9642 -83.1273  255 255 255
-50.0927 36.4 -80.7714  255 255 255
-52.4823 36.3292 -79.2647  255 255 255
52.2967 -3.31669 22.3132  255 255 255
-66.6815 28.7542 -40.9584  255 255 255
-54.8147 35.3305 -77.8966  255 255 255
35.999 16.3558 -56.8836  255 255 255
36.0115 16.3012 -56.9707  255 255 255
-35.2102 29.8057 -73.4591  255 255 255
-68.8847 29.5879 -52.0258  255 255 255
-34.4943 28.6441 -70.9955  255 255 255
-42.8883 29.3925 -71.0079  255 255 255
-42.8112 29.4195 -71.0799  255 255 255
-62.2814 32.6698 -75.119  255 255 255
52.6446 6.61506 -42.9948  255 255 255
-66.2166 27.8003 -79.2453  255 255 255
-47.5741 23.5881 -74.5433  255 255 255
-57.1845 23.8997 -74.5045  255 255 255
17.7031 -4.00654 14.2146  255 255 255
50.1825 -4.26041 -11.8018  255 255 255
-16.9146 11.952 -51.3809  255 255 255
44.7233 -1.23347 -31.8362  255 255 255
48.9507 -5.14353 -18.7717  255 255 255
60.0478 -3.26462 -45.0827  255 255 255
49.9925 -6.15049 -15.4978  255 255 255
20.7896 -6.38662 11.2926  255 255 255
-22.2564 6.96023 -43.9033  255 255 255
-70.335 18.6238 -73.5264  255 255 255
48.6343 -7.87143 -24.1952  255 255 255
45.2467 -8.15829 -22.8373  255 255 255
3.47828 -10.346 39.9347  255 255 255
-27.9202 4.95459 -42.2308  255 255 255
-45.797 5.76017 -39.1099  255 255 255
13.3583 -13.2198 35.0633  255 255 255
54.4007 -14.6228 -9.44839  255 255 255
24.6188 -14.7857 23.2172  255 255 255
-46.6014 2.01873 -33.1509  255 255 255
-13.1924 -10.4001 33.2552  255 255 255
2.11707 -13.9482 41.5774  255 255 255
2.28645 -13.9649 41.6823  255 255 255
-34.6221 -2.21362 -30.261  255 255 255
18.006 -16.8959 31.269  255 255 255
18.0135 -16.8135 31.3399  255 255 255
56.3502 -20.5763 -10.8394  255 255 255
-22.6222 -10.5423 20.9787  255 255 255
-40.2385 -4.17815 -27.5887  255 255 255
-16.3819 -12.8154 28.8933  255 255 255
-45.3077 -4.74126 -24.4292  255 255 255
-41.3015 -5.68005 -28.4857  255 255 255
54.3625 -22.8863 -6.4324  255 255 255
-44.8024 -5.60524 -23.4931  255 255 255
-40.5245 -7.19983 -22.164  255 255 255
-38.0884 -8.01689 -21.9686  255 255 255
-46.8003 -6.82581 -18.9085  255 255 255
69.9692 -27.5713 -0.789318  255 255 255
-13.0815 -16.0453 34.7864  255 255 255
-17.2613 -15.5542 28.8119  255 255 255
-53.4378 -7.70606 -29.7715  255 255 255
-48.9144 -10.6372 -14.134  255 255 255
-19.6597 -17.0614 29.1739  255 255 255
-19.6711 -17.207 29.2279  255 255 255
9.21782 -22.8517 33.6623  255 255 255
-50.9192 -12.8477 -22.0706  255 255 255
51.1221 -31.9967 8.0235  255 255 255
49.4425 -30.9489 3.61839  255 255 255
-37.1524 -15.9523 -10.8252  255 255 255
-35.2097 -16.9498 -10.2869  255 255 255
-15.269 -22.2401 35.7213  255 255 255
-18.5326 -21.9764 34.8034  255 255 255
-48.1619 -18.8388 -3.55799  255 255 255
-43.9069 -20.1025 -3.47979  255 255 255
-53.939 -18.777 -0.966829  255 255 255
-53.9783 -18.7239 -0.927571  255 255 255
-51.1055 -20.0027 -0.794733  255 255 255
-52.2372 -20.741 -7.81045  255 255 255
-50.1888 -20.4665 0.158601  255 255 255
-41.5331 -22.5118 -3.06379  255 255 255
-47.226 -21.9212 -6.58462  255 255 255
-61.7659 -20.7661 -8.25864  255 255 255
4.33007 -30.6967 43.0698  255 255 255
49.4565 -40.9931 22.1944  255 255 255
42.713 -41.2368 17.6004  255 255 255
42.73 -41.8927 18.654  255 255 255
-16.9518 -31.8786 30.4918  255 255 255
-2.8667 -35.0258 39.9822  255 255 255
-18.4205 -37.8055 30.544  255 255 255
20.238 -46.7147 30.5983  255 255 255
-15.445 -39.2304 32.9884  255 255 255
-39.5898 -37.8704 15.3323  255 255 255
-35.5359 -37.8903 21.2335  255 255 255
0.658713 -46.4435 33.3607  255 255 255
0.735301 -46.3386 33.2912  255 255 255
32.876 -55.9822 36.6192  255 255 255
-36.021 -43.3956 30.4704  255 255 255
-41.4206 -43.9706 34.8931  255 255 255
-10.8011 -50.5571 37.1412  255 255 255
-19.2918 -51.1793 33.6434  255 255 255
-35.4558 -46.9648 36.5454  255 255 255
-7.62779 -52.7031 38.1678  255 255 255
-7.7044 -52.9973 39.2527  255 255 255
-33.2729 -48.2688 38.1756  255 255 255
-33.5412 -48.6375 38.6928  255 255 255
16.5301 -58.4514 44.6926  255 255 255
-24.6228 -50.9273 40.8998  255 255 255
-24.656 -50.9228 41.0068  255 255 255
10.6231 -58.5816 43.3931  255 255 255
-11.3059 -57.4851 42.2276  255 255 255
18.3122 -62.45 48.6582  255 255 255
-23.9356 -53.7818 44.6363  255 255 255
16.9818 -62.8295 49.1829  255 255 255
15.001 -63.3263 49.8145  255 255 255
76.1689 79.0497 -131.165  255 255 255
11.4522 61.2349 -91.9915  255 255 255
24.3877 64.0592 -108.763  255 255 255
-36.5683 52.214 -60.7686  255 255 255
-28.1834 55.0216 -74.5941  255 255 255
23.3837 61.3633 -117.49  255 255 255
-28.0488 52.7807 -77.6651  255 255 255
-1.51164 57.5437 -106.637  255 255 255
-47.4376 47.1547 -64.1572  255 255 255
-51.0969 40.8322 -43.0702  255 255 255
-11.0916 49.3236 -87.1578  255 255 255
-5.07934 49.691 -96.9643  255 255 255
42.9659 11.3849 3.57135  255 255 255
-0.884777 43.7765 -93.8089  255 255 255
61.8887 27.6115 -70.28  255 255 255
54.3045 9.27065 -2.34931  255 255 255
-29.1119 44.5332 -89.3816  255 255 255
-0.580186 39.6531 -87.3784  255 255 255
-36.0632 41.9516 -87.5541  255 255 255
51.3873 37.0218 -115.951  255 255 255
-51.1996 34.2846 -54.5684  255 255 255
-65.2062 38.2647 -61.5049  255 255 255
-3.70411 34.8109 -81.4062  255 255 255
-33.1243 40.8543 -95.4424  255 255 255
-10.2918 32.8088 -77.8712  255 255 255
31.7366 20.2216 -59.0537  255 255 255
-64.6132 27.945 -35.1161  255 255 255
-53.0366 36.2882 -75.6672  255 255 255
-28.5296 31.1499 -73.9483  255 255 255
53.8125 -5.18915 28.4948  255 255 255
-53.4412 34.3532 -78.0825  255 255 255
33.0792 15.3934 -54.838  255 255 255
-56.0897 32.5181 -73.4652  255 255 255
-76.1273 31.2413 -55.021  255 255 255
-71.6818 31.7467 -60.9451  255 255 255
-63.7397 33.0465 -73.7812  255 255 255
-43.0088 27.9887 -69.3327  255 255 255
-39.3435 29.911 -79.6432  255 255 255
-60.4088 32.4797 -77.4934  255 255 255
-63.4856 31.4674 -76.0945  255 255 255
-57.5529 31.3262 -80.1019  255 255 255
48.7334 1.27853 -12.9051  255 255 255
-44.8726 28.6474 -79.687  255 255 255
10.3223 -0.448189 16.7002  255 255 255
-47.464 27.2288 -78.6  255 255 255
55.2667 -10.1074 26.7013  255 255 255
50.1915 -1.29954 -14.9455  255 255 255
-82.4675 29.5495 -70.9811  255 255 255
-81.2651 26.5461 -63.7411  255 255 255
-70.5815 20.4049 -39.3987  255 255 255
-61.9792 27.0412 -78.3976  255 255 255
-72.9904 25.8215 -67.859  255 255 255
-72.0101 21.7279 -79.1462  255 255 255
-5.39368 -6.59878 36.5807  255 255 255
56.1498 -12.6249 13.9622  255 255 255
45.6327 -8.4931 -22.4283  255 255 255
5.91126 -11.5726 39.7645  255 255 255
64.5934 -15.9697 1.77498  255 255 255
58.6342 -19.4175 28.4922  255 255 255
-63.7464 9.43652 -59.0177  255 255 255
-63.808 9.46934 -58.9294  255 255 255
57.1658 -15.8754 -5.72941  255 255 255
-45.5662 2.51888 -34.4826  255 255 255
48.2937 -14.5751 -18.2059  255 255 255
-37.4615 0.245141 -34.7834  255 255 255
-32.0874 -0.840771 -32.684  255 255 255
-16.9175 -9.52596 25.3806  255 255 255
-46.6872 0.721973 -32.7768  255 255 255
56.7842 -18.2897 -15.4547  255 255 255
54.9927 -19.1843 -11.9805  255 255 255
-35.8883 -3.99693 -27.5688  255 255 255
59.1176 -24.203 21.1718  255 255 255
-18.8072 -11.4338 24.3259  255 255 255
55.9299 -21.4516 -10.7308  255 255 255
-17.7401 -12.7063 28.473  255 255 255
54.5788 -22.3188 -8.08438  255 255 255
55.2967 -25.4631 -0.742459  255 255 255
1.19406 -17.9084 41.3843  255 255 255
7.14483 -19.8276 39.6032  255 255 255
46.0682 -24.6116 1.17341  255 255 255
-33.293 -10.7174 -18.151  255 255 255
-18.4547 -15.5677 28.4101  255 255 255
-50.4978 -8.96478 -17.0609  255 255 255
19.2278 -22.6117 35.6169  255 255 255
-14.2699 -17.1856 34.0294  255 255 255
5.13758 -20.9067 40.1418  255 255 255
-18.4439 -16.8859 29.9262  255 255 255
3.57336 -22.2317 39.976  255 255 255
-0.0227569 -21.1934 32.0333  255 255 255
-15.0159 -19.4942 36.3178  255 255 255
51.2182 -34.2766 9.91715  255 255 255
-14.5508 -22.1428 35.9847  255 255 255
-20.4936 -21.4266 33.8408  255 255 255
7.08243 -25.9574 28.3579  255 255 255
-15.7609 -22.7493 36.1479  255 255 255
6.30523 -26.1191 28.7243  255 255 255
-4.48262 -26.8874 41.1882  255 255 255
43.4081 -38.2367 17.8785  255 255 255
-57.7657 -21.0306 2.80829  255 255 255
-56.6716 -22.144 -7.58495  255 255 255
-45.1596 -24.3957 -3.07926  255 255 255
-49.1534 -27.8531 9.70811  255 255 255
-50.1465 -27.5874 10.7417  255 255 255
-38.7327 -31.5719 7.51939  255 255 255
-16.849 -33.2381 28.3184  255 255 255
-44.1501 -30.8862 12.7184  255 255 255
43.7764 -47.4808 28.5695  255 255 255
-7.06266 -36.6391 30.7055  255 255 255
-6.54499 -39.3229 33.7563  255 255 255
-39.7328 -38.3946 16.0272  255 255 255
7.39733 -50.2499 36.8542  255 255 255
-41.044 -42.3567 31.5557  255 255 255
-41.1408 -42.2799 31.5568  255 255 255
-33.0951 -44.8316 30.6178  255 255 255
-0.273336 -52.6908 35.3913  255 255 255
36.9252 -59.2753 43.0899  255 255 255
27.8456 -58.0086 39.303  255 255 255
-14.6622 -50.5906 37.1665  255 255 255
15.6077 -57.4257 45.6575  255 255 255
-25.9397 -51.2934 42.0485  255 255 255
-8.37859 -57.1795 41.8332  255 255 255
-29.1408 -55.6196 39.4075  255 255 255
-10.4837 -58.9313 44.2293  255 255 255
-22.1425 -57.7769 42.4177  255 255 255
20.8007 62.2621 -109.317  255 255 255
8.985 55.5235 -110.543  255 255 255
63.2026 34.2552 -72.3212  255 255 255
-10.1194 48.0498 -96.7891  255 255 255
64.5393 50.1684 -152.531  255 255 255
59.1266 47.2309 -144.328  255 255 255
-15.0403 35.1152 -82.0424  255 255 255
50.4575 0.218839 16.087  255 255 255
49.4722 0.631865 11.8309  255 255 255
-1.78438 25.2344 -64.8953  255 255 255
44.3554 4.29331 -6.74114  255 255 255
-30.4512 26.1632 -69.1548  255 255 255
-54.2467 32.8392 -84.5808  255 255 255
-64.1767 32.2128 -75.6131  255 255 255
-68.1736 30.3151 -69.4572  255 255 255
-17.2079 19.8864 -60.3826  255 255 255
-29.8606 24.3039 -72.0814  255 255 255
-66.949 29.5645 -77.4999  255 255 255
-76.2135 26.1211 -71.7149  255 255 255
-78.9749 25.4148 -75.1215  255 255 255
-54.8615 16.1382 -52.468  255 255 255
7.70138 -8.83607 35.6482  255 255 255
-43.8638 9.72713 -49.1369  255 255 255
-60.356 10.4403 -57.4991  255 255 255
52.3768 -11.7276 -21.271  255 255 255
52.3892 -11.7987 -21.1247  255 255 255
59.0182 -16.9419 -7.80245  255 255 255
59.2995 -16.8297 -8.1341  255 255 255
-59.5543 6.35934 -50.1172  255 255 255
-59.5174 6.31939 -50.0387  255 255 255
48.3567 -15.6713 -17.0118  255 255 255
-89.5968 12.2081 -75.4506  255 255 255
-3.43798 -13.4316 37.8368  255 255 255
-35.7597 -5.07947 -26.2939  255 255 255
-34.9588 -6.29147 -26.0245  255 255 255
-34.9559 -6.40429 -24.7459  255 255 255
56.9511 -24.0493 -6.86588  255 255 255
-35.2602 -8.75415 -20.6149  255 255 255
-14.859 -15.4536 29.323  255 255 255
43.675 -25.6749 2.46322  255 255 255
-38.1657 -14.6221 -15.9568  255 255 255
-6.79763 -26.44 40.6576  255 255 255
-12.6079 -26.8056 41.0997  255 255 255
-10.3833 -27.0346 39.1546  255 255 255
-44.4422 -24.861 4.87152  255 255 255
-45.6787 -25.0854 0.105071  255 255 255
-47.6762 -24.5663 2.63164  255 255 255
44.3736 -41.2938 17.4885  255 255 255
-38.2657 -27.3275 2.63801  255 255 255
-38.2235 -27.4281 2.62401  255 255 255
-59.7275 -27.4681 18.5153  255 255 255
-43.8561 -31.7383 14.9116  255 255 255
42.9826 -47.5887 29.0096  255 255 255
-37.0069 -39.9718 19.1204  255 255 255
-42.0545 -40.996 29.4242  255 255 255
-27.575 -44.5273 29.7739  255 255 255
-41.384 -41.7599 30.9421  255 255 255
-43.2193 -41.7532 32.5091  255 255 255
-33.6803 -44.8954 32.0462  255 255 255
-44.4111 -42.4917 34.5257  255 255 255
8.7658 -54.1833 36.8881  255 255 255
22.782 -56.033 40.075  255 255 255
12.1171 -56.0984 42.6731  255 255 255
-34.0629 -48.0059 38.1039  255 255 255
-5.14055 -55.7957 39.894  255 255 255
52.2412 27.1196 -13.8174  255 255 255
52.946 19.2855 -26.0477  255 255 255
-49.9946 42.7487 -62.7293  255 255 255
28.4596 29.1729 -65.198  255 255 255
18.6257 26.1795 -64.2149  255 255 255
33.6391 17.5718 -57.3587  255 255 255
38.5828 15.9796 -56.1081  255 255 255
-73.1603 27.9704 -52.8719  255 255 255
-64.8784 30.1798 -77.7263  255 255 255
-62.5954 31.2241 -88.0936  255 255 255
-74.8019 25.8585 -60.5558  255 255 255
-36.9094 8.75458 -45.0171  255 255 255
-31.6967 7.67659 -43.5324  255 255 255
48.8587 -8.7055 -22.5302  255 255 255
-57.8982 5.31414 -48.5137  255 255 255
-22.8971 -8.26935 17.9248  255 255 255
59.3867 -19.5812 -10.8814  255 255 255
-36.6382 -2.73761 -29.6811  255 255 255
-47.5111 -12.0161 -15.9874  255 255 255
-18.0303 -18.1032 31.5027  255 255 255
-5.63066 -23.4545 41.306  255 255 255
-16.086 -24.4637 37.1682  255 255 255
-42.4731 -25.219 -2.13079  255 255 255
-25.0334 -27.5196 17.4125  255 255 255
-44.6903 -27.6442 9.7058  255 255 255
42.0273 -44.4704 20.3176  255 255 255
-35.9256 -38.9747 16.5285  255 255 255
-41.4021 -38.161 15.9153  255 255 255
-4.72652 -43.9832 35.6127  255 255 255
28.1181 -58.4677 40.7667  255 255 255
28.0419 -58.3972 40.7047  255 255 255
23.2956 -57.89 42.4135  255 255 255
2.35342 -54.23 41.8353  255 255 255
21.2297 -59.2456 44.2963  255 255 255
14.8768 -58.9355 44.6039  255 255 255
22.8946 -60.6035 45.7298  255 255 255
16.7516 -59.3402 45.0747  255 255 255
58.4402 71.1444 -120.23  255 255 255
8.48478 63.7119 -131.931  255 255 255
53.3251 16.8854 -25.5791  255 255 255
61.4557 25.6553 -76.4509  255 255 255
24.0829 25.2354 -59.2515  255 255 255
-48.8533 35.5389 -86.7557  255 255 255
-50.0391 33.0704 -81.1485  255 255 255
-11.0559 -3.81574 30.1216  255 255 255
-77.5667 23.3758 -72.3492  255 255 255
-7.64871 -8.12422 38.754  255 255 255
56.3615 -21.4109 -8.9162  255 255 255
54.8194 -23.0569 -6.27339  255 255 255
-4.62651 -16.6083 38.1676  255 255 255
-4.60949 -16.7206 38.1313  255 255 255
52.3525 -27.1239 1.3086  255 255 255
42.1446 -29.2078 7.07835  255 255 255
-20.9664 -20.523 33.6971  255 255 255
-8.19246 -22.7722 40.2063  255 255 255
-17.0334 -22.8141 36.0388  255 255 255
-43.6629 -22.0551 -5.94268  255 255 255
-42.5875 -23.0244 -4.94365  255 255 255
-42.5938 -23.1575 -4.98953  255 255 255
-47.9768 -22.3698 -3.76996  255 255 255
-23.7113 -27.0302 21.7067  255 255 255
-40.2863 -30.1272 5.86159  255 255 255
5.05561 -35.7622 37.4648  255 255 255
0.074865 -38.3138 32.5273  255 255 255
-40.4335 -36.013 13.5496  255 255 255
-36.5474 -41.8412 20.4951  255 255 255
-41.5629 -42.4302 31.1976  255 255 255
-43.7249 -43.4435 35.925  255 255 255
-16.498 -51.1627 33.584  255 255 255
3.84226 -58.1557 42.586  255 255 255
3.09764 -58.396 44.0846  255 255 255
-17.6957 -19.9398 30.0441  255 255 255
-18.2761 -34.6119 26.8775  255 255 255
-37.6878 -40.6765 18.705  255 255 255
26.5673 -57.4572 39.4753  255 255 255
22.6804 -58.9212 43.2648  255 255 255
16.1583 -58.9085 44.1633  255 255 255
11.5516 -61.5176 47.5385  255 255 255
26.9722 63.7018 -110.636  255 255 255
61.6211 -4.57626 3.92805  255 255 255
-17.1689 -10.846 24.0984  255 255 255
-13.3032 -24.3128 37.633  255 255 255
-19.446 -10.5675 22.725  255 255 255
-7.60006 -56.6531 41.1438  255 255 255
-1.60823 -15.9463 40.7057  255 255 255
-16.2217 -17.5503 35.5156  255 255 255
-44.8367 41.8716 -72.845  255 255 255
25.9517 108.121 -68.8973  255 255 255
36.7554 35.8985 21.8809  255 255 255
51.6296 54.8558 -4.87047  255 255 255
38.1374 31.7713 25.5464  255 255 255
70.0992 114.823 -95.2584  255 255 255
-53.6654 69.9535 -21.5444  255 255 255
61.9911 103.623 -87.8741  255 255 255
-7.24149 85.025 -54.0394  255 255 255
33.7259 13.4871 42.4164  255 255 255
39.5428 30.5968 15.6674  255 255 255
39.9149 28.3076 14.9321  255 255 255
34.5105 11.127 39.9977  255 255 255
-41.7481 67.9879 -37.0355  255 255 255
35.2168 7.37662 44.1607  255 255 255
45.8714 21.8763 16.6963  255 255 255
22.1708 85.2306 -82.2517  255 255 255
-40.2001 65.4475 -43.3622  255 255 255
-36.6148 65.8454 -45.727  255 255 255
-36.58 65.9358 -45.6619  255 255 255
-13.7393 72.5322 -60.9528  255 255 255
35.1414 10.4336 33.7075  255 255 255
34.9024 10.0218 34.444  255 255 255
-39.8497 63.4539 -46.0127  255 255 255
35.2068 8.59752 33.9743  255 255 255
42.3668 36.1706 -15.0013  255 255 255
35.7927 86.9648 -100.961  255 255 255
-47.6141 60.772 -43.1935  255 255 255
-46.6147 60.6539 -44.4356  255 255 255
24.0669 74.5257 -82.0555  255 255 255
35.8047 1.81122 43.4026  255 255 255
-47.0221 59.507 -42.0942  255 255 255
48.5402 36.338 -20.3007  255 255 255
-3.08576 71.2961 -74.6915  255 255 255
48.8575 33.6468 -19.4145  255 255 255
17.8763 78.5448 -94.7106  255 255 255
55.924 9.15817 20.9621  255 255 255
29.7828 71.7995 -91.5394  255 255 255
8.91837 74.726 -91.9399  255 255 255
37.2628 10.6644 18.8056  255 255 255
36.7628 -0.470628 39.8436  255 255 255
44.8514 21.6733 -3.89433  255 255 255
45.4997 26.243 -14.0094  255 255 255
51.6428 28.6094 -20.7833  255 255 255
53.1542 9.44985 14.6852  255 255 255
20.5974 75.3859 -103.001  255 255 255
49.9339 30.2004 -25.4279  255 255 255
68.8139 71.9432 -110.973  255 255 255
68.7919 72.0059 -110.979  255 255 255
37.5774 3.36216 27.0605  255 255 255
-16.219 61.7874 -74.6188  255 255 255
37.673 2.00412 28.3486  255 255 255
46.7915 15.1598 -3.47882  255 255 255
-63.1426 49.9412 -46.5184  255 255 255
44.2846 28.2393 -28.142  255 255 255
-62.4748 47.8367 -43.02  255 255 255
38.5969 1.43472 19.0781  255 255 255
47.8755 8.01553 1.65544  255 255 255
47.7527 7.62786 0.88467  255 255 255
-40.8866 48.9138 -64.5135  255 255 255
43.9116 20.7001 -25.846  255 255 255
38.6811 -6.27027 32.8871  255 255 255
39.8559 2.22896 13.2286  255 255 255
12.8773 58.1673 -102.713  255 255 255
-37.718 48.1873 -66.1584  255 255 255
48.8096 6.84728 -0.69008  255 255 255
-44.1923 46.9127 -61.6526  255 255 255
53.8884 -0.749597 13.4564  255 255 255
48.5704 6.08047 0.20326  255 255 255
-46.9096 45.9513 -62.311  255 255 255
52.18 1.0967 7.18318  255 255 255
-64.0708 42.5013 -49.0188  255 255 255
-52.581 44.3255 -59.3402  255 255 255
-4.29355 51.9008 -92.6574  255 255 255
40.1468 -1.63359 15.4205  255 255 255
-69.0749 41.9059 -50.0371  255 255 255
-65.1503 40.3112 -46.9562  255 255 255
37.073 60.2727 -128.832  255 255 255
-75.0637 38.9145 -40.2386  255 255 255
-67.3527 39.4541 -44.7478  255 255 255
-66.7097 39.0489 -44.6726  255 255 255
39.4484 -8.27195 29.6834  255 255 255
-64.5771 39.7039 -47.5786  255 255 255
-73.608 35.476 -42.2005  255 255 255
-24.2216 49.1786 -94.1236  255 255 255
-57.9456 37.3804 -56.0672  255 255 255
-63.1787 38.0214 -54.7954  255 255 255
50.8661 -5.47802 9.05239  255 255 255
55.1215 -5.5388 6.87057  255 255 255
40.8055 -9.09674 20.1265  255 255 255
-11.8867 -4.20489 28.457  255 255 255
-4.14476 -10.0573 39.5254  255 255 255
40.5212 -13.6313 26.663  255 255 255
-62.8433 33.4453 -56.2915  255 255 255
-5.71055 -10.3968 39.0422  255 255 255
-5.22687 39.3358 -98.7857  255 255 255
-3.31184 -11.7459 40.8857  255 255 255
-76.9957 30.1 -44.0611  255 255 255
-60.3588 32.9963 -60.4131  255 255 255
55.9876 -9.64514 4.04152  255 255 255
-64.6505 32.3943 -64.2291  255 255 255
-16.5799 27.1081 -71.3002  255 255 255
56.3094 -12.1663 6.42014  255 255 255
-72.4226 28.5532 -50.8028  255 255 255
-78.0162 28.5604 -51.6492  255 255 255
42.9314 -17.1982 17.6775  255 255 255
-20.5004 -2.8807 8.37333  255 255 255
58.0188 -16.1507 4.08468  255 255 255
-19.5554 -3.88167 9.88989  255 255 255
56.0246 -15.0384 -0.2983  255 255 255
-76.1188 24.9473 -56.9937  255 255 255
-21.7648 -5.17651 11.7293  255 255 255
-22.9421 -6.03611 13.4058  255 255 255
-12.1436 -16.0969 36.0477  255 255 255
-9.78363 -16.0141 33.8319  255 255 255
-16.4089 11.3382 -60.1081  255 255 255
4.67457 -21.5326 40.0919  255 255 255
-10.819 -17.8924 36.9565  255 255 255
-3.66456 -20.702 40.5242  255 255 255
-7.09931 -22.7243 40.6795  255 255 255
-11.86 -21.4729 34.2641  255 255 255
-49.0782 -2.25742 -32.0919  255 255 255
-10.597 -25.3886 36.4184  255 255 255
-12.9267 -26.0118 40.0599  255 255 255
-11.074 -28.6165 41.2602  255 255 255
-1.31379 -31.3476 42.9903  255 255 255
-44.5228 -13.1773 -17.0254  255 255 255
-7.52054 -30.3459 36.7013  255 255 255
-22.5736 -26.5088 24.6118  255 255 255
-22.9226 -26.3451 23.0132  255 255 255
-6.42929 -32.4445 39.2321  255 255 255
-6.58774 -31.7176 35.0643  255 255 255
-16.4626 -29.6508 25.4715  255 255 255
-48.5079 -17.8418 -13.5461  255 255 255
-4.79985 -33.7447 34.2719  255 255 255
-38.7655 -21.3396 -7.71974  255 255 255
-16.4094 -31.9944 22.55  255 255 255
-12.9032 -33.7655 26.1933  255 255 255
-15.2684 -33.0519 24.1792  255 255 255
-43.2349 -24.7136 -4.68371  255 255 255
-39.877 -24.9019 -7.38679  255 255 255
-49.5187 -30.2793 2.53225  255 255 255
-41.2378 -33.4147 6.53635  255 255 255
-38.8801 -34.4996 5.29209  255 255 255
-37.688 -37.9187 16.9394  255 255 255
36.2389 47.2628 5.4007  255 255 255
-64.123 70.2753 -20.752  255 255 255
55.1875 108.17 -90.4346  255 255 255
74.8631 112.936 -101.998  255 255 255
73.8946 112.679 -101.09  255 255 255
1.54138 74.7929 -45.498  255 255 255
67.9134 104.576 -103.816  255 255 255
33.7789 89.6856 -79.6124  255 255 255
34.4906 11.979 38.9759  255 255 255
3.14181 78.2917 -64.3585  255 255 255
35.1096 3.51432 45.2376  255 255 255
16.4356 81.6152 -81.7111  255 255 255
-48.5059 61.2527 -37.5416  255 255 255
-65.3558 57.2928 -26.4653  255 255 255
11.133 74.979 -74.0506  255 255 255
20.6191 75.608 -79.7678  255 255 255
63.3607 90.3603 -111.445  255 255 255
48.939 15.9399 16.7725  255 255 255
-47.8771 59.499 -41.0009  255 255 255
25.2951 75.8754 -84.7553  255 255 255
35.7262 8.52412 29.1386  255 255 255
25.9274 70.2359 -89.6598  255 255 255
25.494 72.199 -93.2864  255 255 255
20.3924 74.7432 -96.2493  255 255 255
-59.2235 54.6846 -43.2836  255 255 255
-24.8761 59.7942 -64.0414  255 255 255
37.5373 -0.850548 33.7927  255 255 255
-39.9317 54.2712 -59.3101  255 255 255
-24.0947 56.342 -68.6363  255 255 255
50.2666 6.33379 10.1664  255 255 255
38.807 7.03657 11.0688  255 255 255
53.8782 1.33532 15.4713  255 255 255
50.6791 4.53561 8.41216  255 255 255
38.9896 0.318742 20.4658  255 255 255
45.921 9.55921 -2.79236  255 255 255
-57.9968 45.0255 -50.8129  255 255 255
25.0024 72.8894 -137.623  255 255 255
50.5867 -1.39847 17.3411  255 255 255
-9.86354 57.2253 -97.6221  255 255 255
-0.742441 52.1621 -99.6335  255 255 255
-62.4633 41.6327 -52.8365  255 255 255
-74.4095 38.1516 -45.4203  255 255 255
-74.9212 36.6476 -46.1422  255 255 255
-63.0459 37.9611 -59.3933  255 255 255
40.9258 -12.8211 23.9459  255 255 255
-6.61927 -11.3439 39.3769  255 255 255
-14.152 -1.95232 12.1264  255 255 255
-18.5869 -1.05174 7.5932  255 255 255
-22.6383 24.1485 -69.304  255 255 255
-57.7382 28.6012 -66.9528  255 255 255
-78.7134 25.8012 -52.3807  255 255 255
-13.3777 -12.6711 33.57  255 255 255
-34.7537 19.1202 -60.4348  255 255 255
-15.0423 14.208 -56.5907  255 255 255
-22.0528 -5.57928 12.1687  255 255 255
5.95346 -19.3465 40.2722  255 255 255
-12.3733 16.0949 -67.8175  255 255 255
12.5619 -21.9567 38.3231  255 255 255
-22.8826 7.98101 -46.8599  255 255 255
-6.33285 -19.9214 40.5562  255 255 255
54.7077 -19.616 -6.48275  255 255 255
-42.2005 8.32562 -46.5272  255 255 255
-4.14758 -20.4102 36.7796  255 255 255
57.0073 -22.6036 -2.69162  255 255 255
-15.5766 -21.2747 34.6669  255 255 255
-28.0756 -6.80698 -27.7282  255 255 255
-32.6098 -10.8992 -19.7539  255 255 255
-13.6324 -26.8681 33.236  255 255 255
-19.9538 -25.3075 23.7521  255 255 255
-47.3482 -16.6098 -15.7241  255 255 255
-20.1069 -28.9926 31.2099  255 255 255
-36.8999 -19.1064 -16.6798  255 255 255
-48.6281 -18.6723 -10.5437  255 255 255
-39.0019 -21.3097 -8.75406  255 255 255
-22.2451 -28.6338 21.2278  255 255 255
-20.2953 -28.8922 18.0402  255 255 255
-1.48802 -35.7295 37.0418  255 255 255
32.5245 17.6835 42.5104  255 255 255
32.8835 17.4593 41.0823  255 255 255
36.1598 91.7617 -87.7261  255 255 255
34.47 13.4068 33.6652  255 255 255
-67.5628 56.678 -23.9657  255 255 255
30.7567 84.1132 -90.5885  255 255 255
32.7691 86.0227 -96.4821  255 255 255
32.706 86.079 -96.3664  255 255 255
55.7772 11.7012 21.5052  255 255 255
27.7292 77.6326 -94.1851  255 255 255
41.6891 83.2904 -116.182  255 255 255
71.3251 77.2031 -118.035  255 255 255
48.5265 11.7047 9.60688  255 255 255
46.1828 14.3524 3.61376  255 255 255
12.7244 65.2861 -88.5235  255 255 255
12.8948 65.8293 -91.7171  255 255 255
37.9739 6.5852 18.6693  255 255 255
38.0946 5.62293 19.8853  255 255 255
39.8935 71.0889 -111.437  255 255 255
37.9523 -4.16841 33.6141  255 255 255
-48.9319 49.3572 -55.7531  255 255 255
17.3208 69.9583 -128.958  255 255 255
48.3935 2.59768 9.20483  255 255 255
-60.8696 45.8347 -54.3317  255 255 255
-60.6942 44.2262 -50.3508  255 255 255
51.879 0.682486 6.89543  255 255 255
49.2914 3.84559 0.573317  255 255 255
54.1678 15.7223 -30.2024  255 255 255
-62.3601 41.8317 -51.5583  255 255 255
-68.7203 39.8564 -45.6737  255 255 255
-37.0386 41.3679 -76.0552  255 255 255
-9.32453 -7.81666 36.9706  255 255 255
-9.3261 -7.95819 36.9106  255 255 255
55.6005 -8.71012 8.65155  255 255 255
-9.46857 23.4447 -64.764  255 255 255
-2.82085 -14.4674 41.9226  255 255 255
-21.8341 -3.61061 9.13786  255 255 255
-15.4612 12.7674 -62.2664  255 255 255
-21.3458 -15.2224 25.5382  255 255 255
-3.55332 -29.2901 41.4788  255 255 255
-41.1627 -18.7473 -11.5943  255 255 255
-44.6473 -20.2076 -10.433  255 255 255
-18.6486 -32.4424 21.2557  255 255 255
-57.6851 -23.057 -5.8401  255 255 255
-9.61061 89.6349 -48.1033  255 255 255
-9.51579 89.6649 -48.0191  255 255 255
42.1361 38.1724 -18.1734  255 255 255
50.3967 91.1246 -117.812  255 255 255
46.5464 88.6085 -113.747  255 255 255
19.5876 77.3276 -95.7754  255 255 255
37.4382 74.448 -96.4976  255 255 255
-8.34914 62.5596 -79.5395  255 255 255
10.5282 63.459 -88.7641  255 255 255
50.6419 8.02194 12.2627  255 255 255
-7.59262 62.918 -95.0529  255 255 255
-31.0376 50.8997 -70.318  255 255 255
48.0704 4.56494 -4.97315  255 255 255
-75.1234 37.4864 -46.6937  255 255 255
-61.1226 33.5884 -65.1124  255 255 255
-9.21298 23.4569 -68.7752  255 255 255
